0.022561,-0.008513,0.520000
0.027550,-0.008530,0.521000
0.032495,-0.008530,0.521000
0.037511,-0.008546,0.522000
0.042544,-0.008562,0.523000
0.047596,-0.008578,0.524000
0.052666,-0.008595,0.525000
0.057643,-0.008595,0.525000
0.062739,-0.008611,0.526000
0.067851,-0.008627,0.527000
0.072981,-0.008643,0.528000
0.077981,-0.008643,0.528000
0.083135,-0.008659,0.529000
0.088307,-0.008675,0.530000
0.093495,-0.008691,0.531000
0.098515,-0.008691,0.531000
0.103727,-0.008707,0.532000
0.108955,-0.008723,0.533000
0.114200,-0.008739,0.534000
0.119462,-0.008755,0.535000
0.124507,-0.008755,0.535000
0.129791,-0.008771,0.536000
0.135092,-0.008787,0.537000
0.140408,-0.008804,0.538000
0.145741,-0.008820,0.539000
0.150809,-0.008820,0.539000
0.156164,-0.008836,0.540000
0.161535,-0.008852,0.541000
0.166922,-0.008868,0.542000
0.172324,-0.008884,0.543000
0.177416,-0.008884,0.543000
0.182841,-0.008901,0.544000
0.187936,-0.008901,0.544000
0.193384,-0.008917,0.545000
0.198483,-0.008917,0.545000
0.203579,-0.008918,0.545000
0.208672,-0.008918,0.545000
0.213763,-0.008918,0.545000
0.218852,-0.008918,0.545000
0.223527,-0.008902,0.544000
0.228601,-0.008903,0.544000
0.233674,-0.008903,0.544000
0.238744,-0.008904,0.544000
0.000000,-0.000000,0.000000
0.000000,-0.000000,0.000000
0.000000,-0.000000,0.000000
0.000000,-0.000000,0.000000
0.000000,-0.000000,0.000000
0.000000,-0.000000,0.000000
0.000000,-0.000000,0.000000
0.245366,-0.007831,0.478000
0.249810,-0.007832,0.478000
0.254254,-0.007834,0.478000
0.258698,-0.007835,0.478000
0.263692,-0.007853,0.479000
0.268145,-0.007855,0.479000
0.273167,-0.007873,0.480000
0.277631,-0.007875,0.480000
0.282682,-0.007893,0.481000
0.287156,-0.007896,0.481000
0.292238,-0.007914,0.482000
0.297340,-0.007933,0.483000
0.302462,-0.007952,0.484000
0.307605,-0.007971,0.485000
0.312768,-0.007991,0.486000
0.317953,-0.008010,0.487000
0.323158,-0.008030,0.488000
0.328386,-0.008049,0.489000
0.334316,-0.008086,0.491000
0.339596,-0.008106,0.492000
0.344899,-0.008126,0.493000
0.350933,-0.008163,0.495000
0.356291,-0.008183,0.496000
0.362399,-0.008221,0.498000
0.368550,-0.008258,0.500000
0.374743,-0.008296,0.502000
0.380978,-0.008333,0.504000
0.388022,-0.008388,0.507000
0.395129,-0.008443,0.510000
0.402297,-0.008498,0.513000
0.409529,-0.008553,0.516000
0.416823,-0.008609,0.519000
0.423369,-0.008648,0.521000
0.430781,-0.008704,0.524000
0.437425,-0.008743,0.526000
0.444115,-0.008783,0.528000
0.450850,-0.008823,0.530000
0.457631,-0.008863,0.532000
0.463587,-0.008887,0.533000
0.468691,-0.008894,0.533000
0.000000,-0.000000,0.000000
0.000000,-0.000000,0.000000
0.000000,-0.000000,0.000000
0.000000,-0.000000,0.000000
0.000000,-0.000000,0.000000
0.000000,-0.000000,0.000000
0.000000,-0.000000,0.000000
0.000000,-0.000000,0.000000
0.000000,-0.000000,0.000000
0.000000,-0.000000,0.000000
-0.000000,-0.000000,0.000000
-0.000000,-0.000000,0.000000
-0.000000,-0.000000,0.000000
-0.000000,-0.000000,0.000000
-0.000000,-0.000000,0.000000
-0.000000,-0.000000,0.000000
-0.000000,-0.000000,0.000000
-0.000000,-0.000000,0.000000
-0.000000,-0.000000,0.000000
-0.000000,-0.000000,0.000000
-0.000000,-0.000000,0.000000
-0.000000,-0.000000,0.000000
-0.000000,-0.000000,0.000000
-0.000000,-0.000000,0.000000
-0.000000,-0.000000,0.000000
-0.000000,-0.000000,0.000000
-0.000000,-0.000000,0.000000
-0.000000,-0.000000,0.000000
-0.000000,-0.000000,0.000000
-0.000000,-0.000000,0.000000
-0.000000,-0.000000,0.000000
-0.340674,-0.003028,0.421000
-0.338303,-0.003038,0.423000
-0.335110,-0.003041,0.424000
-0.332683,-0.003052,0.426000
-0.330224,-0.003062,0.428000
-0.327731,-0.003072,0.430000
-0.324453,-0.003075,0.431000
-0.321904,-0.003086,0.433000
-0.319322,-0.003096,0.435000
-0.315981,-0.003099,0.436000
-0.313341,-0.003110,0.438000
-0.309961,-0.003113,0.439000
-0.307262,-0.003124,0.441000
-0.303843,-0.003128,0.442000
-0.301085,-0.003138,0.444000
-0.297624,-0.003142,0.445000
-0.294807,-0.003153,0.447000
-0.291305,-0.003157,0.448000
-0.288427,-0.003168,0.450000
-0.284882,-0.003172,0.451000
-0.281943,-0.003183,0.453000
-0.278355,-0.003187,0.454000
-0.275354,-0.003198,0.456000
-0.272317,-0.003210,0.458000
-0.268658,-0.003214,0.459000
-0.265557,-0.003225,0.461000
-0.261853,-0.003230,0.462000
-0.258688,-0.003241,0.464000
-0.255486,-0.003253,0.466000
-0.251709,-0.003258,0.467000
-0.248441,-0.003269,0.469000
-0.245137,-0.003281,0.471000
-0.241283,-0.003286,0.472000
-0.237912,-0.003298,0.474000
-0.234503,-0.003310,0.476000
-0.230572,-0.003315,0.477000
-0.227096,-0.003327,0.479000
-0.223580,-0.003339,0.481000
-0.220026,-0.003351,0.483000
-0.216433,-0.003363,0.485000
-0.212364,-0.003368,0.486000
-0.208702,-0.003380,0.488000
-0.205001,-0.003393,0.490000
-0.201260,-0.003405,0.492000
-0.197480,-0.003417,0.494000
-0.193659,-0.003430,0.496000
-0.189799,-0.003442,0.498000
-0.185899,-0.003455,0.500000
-0.181959,-0.003467,0.502000
-0.177979,-0.003480,0.504000
-0.173959,-0.003493,0.506000
-0.169898,-0.003505,0.508000
-0.165797,-0.003518,0.510000
-0.161971,-0.003538,0.513000
-0.157780,-0.003550,0.515000
-0.153548,-0.003563,0.517000
-0.149275,-0.003576,0.519000
-0.144962,-0.003589,0.521000
-0.140608,-0.003602,0.523000
-0.136214,-0.003615,0.525000
-0.131779,-0.003628,0.527000
-0.127303,-0.003641,0.529000
-0.123018,-0.003661,0.532000
-0.118452,-0.003674,0.534000
-0.113845,-0.003687,0.536000
-0.109198,-0.003700,0.538000
-0.104510,-0.003714,0.540000
-0.099781,-0.003727,0.542000
-0.095013,-0.003740,0.544000
-0.090203,-0.003753,0.546000
-0.085354,-0.003767,0.548000
-0.080464,-0.003780,0.550000
-0.075398,-0.003787,0.551000
-0.070310,-0.003793,0.552000
-0.065202,-0.003800,0.553000
-0.059964,-0.003799,0.553000
-0.054724,-0.003799,0.553000
-0.000000,-0.000000,0.000000
-0.000000,-0.000000,0.000000
-0.000000,-0.000000,0.000000
-0.000000,-0.000000,0.000000
-0.000000,-0.000000,0.000000
-0.000000,-0.000000,0.000000
-0.017030,-0.003592,0.523000
-0.011996,-0.003571,0.520000
-0.007046,-0.003565,0.519000
-0.002119,-0.003565,0.519000
0.002803,-0.003558,0.518000
0.007721,-0.003558,0.518000
0.012664,-0.003565,0.519000
0.017591,-0.003565,0.519000
0.022561,-0.003572,0.520000
0.027550,-0.003579,0.521000
0.032495,-0.003579,0.521000
0.037510,-0.003586,0.522000
0.042544,-0.003593,0.523000
0.047596,-0.003600,0.524000
0.052565,-0.003601,0.524000
0.057643,-0.003608,0.525000
0.062738,-0.003615,0.526000
0.067851,-0.003622,0.527000
0.072843,-0.003623,0.527000
0.077980,-0.003630,0.528000
0.083135,-0.003637,0.529000
0.088307,-0.003645,0.530000
0.093319,-0.003645,0.530000
0.098514,-0.003653,0.531000
0.103727,-0.003660,0.532000
0.108955,-0.003668,0.533000
0.114200,-0.003675,0.534000
0.119238,-0.003676,0.534000
0.124507,-0.003683,0.535000
0.129791,-0.003691,0.536000
0.135091,-0.003699,0.537000
0.140408,-0.003707,0.538000
0.145470,-0.003707,0.538000
0.150809,-0.003715,0.539000
0.156164,-0.003723,0.540000
0.161535,-0.003731,0.541000
0.166921,-0.003739,0.542000
0.172007,-0.003740,0.542000
0.177416,-0.003748,0.543000
0.182840,-0.003756,0.544000
0.187936,-0.003758,0.544000
0.193383,-0.003766,0.545000
0.198482,-0.003767,0.545000
0.203952,-0.003776,0.546000
0.209054,-0.003777,0.546000
0.214155,-0.003779,0.546000
0.218851,-0.003773,0.545000
0.223937,-0.003775,0.545000
0.229021,-0.003777,0.545000
0.233672,-0.003772,0.544000
0.238742,-0.003774,0.544000
0.000000,-0.000000,0.000000
0.000000,-0.000000,0.000000
0.000000,-0.000000,0.000000
0.000000,-0.000000,0.000000
0.000000,-0.000000,0.000000
0.000000,-0.000000,0.000000
0.000000,-0.000000,0.000000
0.245365,-0.003331,0.478000
0.249809,-0.003334,0.478000
0.254252,-0.003336,0.478000
0.258696,-0.003338,0.478000
0.263690,-0.003348,0.479000
0.268143,-0.003350,0.479000
0.273165,-0.003360,0.480000
0.277628,-0.003363,0.480000
0.282680,-0.003372,0.481000
0.287154,-0.003375,0.481000
0.292236,-0.003385,0.482000
0.297337,-0.003395,0.483000
0.302459,-0.003406,0.484000
0.307602,-0.003416,0.485000
0.312765,-0.003426,0.486000
0.317949,-0.003437,0.487000
0.323155,-0.003447,0.488000
0.328382,-0.003458,0.489000
0.333631,-0.003469,0.490000
0.339592,-0.003487,0.492000
0.344895,-0.003498,0.493000
0.350220,-0.003509,0.494000
0.356286,-0.003527,0.496000
0.362395,-0.003546,0.498000
0.368545,-0.003565,0.500000
0.374738,-0.003583,0.502000
0.381729,-0.003609,0.505000
0.388783,-0.003636,0.508000
0.395898,-0.003662,0.511000
0.403076,-0.003688,0.514000
0.409523,-0.003708,0.516000
0.416818,-0.003735,0.519000
0.424176,-0.003762,0.522000
0.430775,-0.003782,0.524000
0.437419,-0.003802,0.526000
0.444109,-0.003822,0.528000
0.450844,-0.003842,0.530000
0.456764,-0.003856,0.531000
0.462711,-0.003869,0.532000
0.468684,-0.003883,0.533000
0.000000,-0.000000,0.000000
0.000000,-0.000000,0.000000
0.000000,-0.000000,0.000000
0.000000,-0.000000,0.000000
0.000000,-0.000000,0.000000
0.000000,-0.000000,0.000000
0.000000,-0.000000,0.000000
0.000000,-0.000000,0.000000
0.000000,-0.000000,0.000000
0.000000,-0.000000,0.000000
-0.000000,0.000000,0.000000
-0.000000,0.000000,0.000000
-0.000000,0.000000,0.000000
-0.000000,0.000000,0.000000
-0.000000,0.000000,0.000000
-0.000000,0.000000,0.000000
-0.000000,0.000000,0.000000
-0.000000,0.000000,0.000000
-0.000000,0.000000,0.000000
-0.000000,0.000000,0.000000
-0.000000,0.000000,0.000000
-0.000000,0.000000,0.000000
-0.000000,0.000000,0.000000
-0.000000,0.000000,0.000000
-0.000000,0.000000,0.000000
-0.000000,0.000000,0.000000
-0.000000,0.000000,0.000000
-0.000000,0.000000,0.000000
-0.000000,0.000000,0.000000
-0.000000,0.000000,0.000000
-0.000000,0.000000,0.000000
-0.340670,0.000919,0.421000
-0.337499,0.000925,0.422000
-0.335105,0.000933,0.424000
-0.332679,0.000941,0.426000
-0.329448,0.000948,0.427000
-0.326965,0.000956,0.429000
-0.324449,0.000964,0.431000
-0.321900,0.000973,0.433000
-0.318584,0.000979,0.434000
-0.315977,0.000987,0.436000
-0.313337,0.000995,0.438000
-0.309957,0.001001,0.439000
-0.307259,0.001010,0.441000
-0.303839,0.001016,0.442000
-0.301082,0.001024,0.444000
-0.297621,0.001030,0.445000
-0.294804,0.001038,0.447000
-0.291301,0.001044,0.448000
-0.288424,0.001052,0.450000
-0.284879,0.001058,0.451000
-0.281940,0.001067,0.453000
-0.278352,0.001072,0.454000
-0.275351,0.001081,0.456000
-0.271719,0.001087,0.457000
-0.268655,0.001095,0.459000
-0.265554,0.001103,0.461000
-0.261850,0.001109,0.462000
-0.258685,0.001117,0.464000
-0.254935,0.001123,0.465000
-0.251706,0.001131,0.467000
-0.248439,0.001139,0.469000
-0.244614,0.001144,0.470000
-0.241281,0.001153,0.472000
-0.237910,0.001161,0.474000
-0.234008,0.001166,0.475000
-0.230570,0.001174,0.477000
-0.227093,0.001182,0.479000
-0.223578,0.001190,0.481000
-0.219568,0.001195,0.482000
-0.215985,0.001203,0.484000
-0.212362,0.001211,0.486000
-0.208700,0.001219,0.488000
-0.204999,0.001227,0.490000
-0.201258,0.001235,0.492000
-0.197478,0.001242,0.494000
-0.193657,0.001250,0.496000
-0.189797,0.001258,0.498000
-0.185897,0.001265,0.500000
-0.181957,0.001273,0.502000
-0.177977,0.001281,0.504000
-0.173957,0.001288,0.506000
-0.169896,0.001296,0.508000
-0.165795,0.001303,0.510000
-0.161654,0.001310,0.512000
-0.157472,0.001318,0.514000
-0.153249,0.001325,0.516000
-0.148986,0.001332,0.518000
-0.144961,0.001342,0.521000
-0.140607,0.001349,0.523000
-0.136213,0.001356,0.525000
-0.131778,0.001363,0.527000
-0.127302,0.001370,0.529000
-0.122786,0.001377,0.531000
-0.118229,0.001384,0.533000
-0.113844,0.001394,0.536000
-0.109197,0.001401,0.538000
-0.104509,0.001407,0.540000
-0.099780,0.001414,0.542000
-0.095012,0.001421,0.544000
-0.090203,0.001427,0.546000
-0.085353,0.001434,0.548000
-0.080317,0.001438,0.549000
-0.075397,0.001444,0.551000
-0.070310,0.001448,0.552000
-0.065083,0.001449,0.552000
-0.059963,0.001452,0.553000
-0.054723,0.001453,0.553000
-0.000000,0.000000,0.000000
-0.000000,0.000000,0.000000
-0.000000,0.000000,0.000000
-0.000000,0.000000,0.000000
-0.000000,0.000000,0.000000
-0.000000,0.000000,0.000000
-0.000000,0.000000,0.000000
-0.011950,0.001365,0.518000
-0.007032,0.001365,0.518000
-0.002115,0.001365,0.518000
0.002803,0.001365,0.518000
0.007721,0.001365,0.518000
0.012664,0.001367,0.519000
0.017591,0.001367,0.519000
0.022561,0.001370,0.520000
0.027497,0.001369,0.520000
0.032494,0.001371,0.521000
0.037510,0.001374,0.522000
0.042544,0.001376,0.523000
0.047505,0.001375,0.523000
0.052565,0.001377,0.524000
0.057643,0.001379,0.525000
0.062738,0.001381,0.526000
0.067722,0.001380,0.526000
0.072842,0.001381,0.527000
0.077980,0.001383,0.528000
0.083134,0.001384,0.529000
0.088139,0.001383,0.529000
0.093318,0.001384,0.530000
0.098513,0.001386,0.531000
0.103726,0.001387,0.532000
0.108954,0.001388,0.533000
0.113985,0.001386,0.533000
0.119237,0.001387,0.534000
0.124505,0.001388,0.535000
0.129790,0.001389,0.536000
0.135090,0.001390,0.537000
0.140145,0.001388,0.537000
0.145468,0.001388,0.538000
0.150807,0.001389,0.539000
0.156162,0.001389,0.540000
0.161533,0.001390,0.541000
0.166612,0.001388,0.541000
0.172005,0.001388,0.542000
0.177414,0.001388,0.543000
0.182839,0.001388,0.544000
0.187934,0.001385,0.544000
0.193381,0.001385,0.545000
0.198480,0.001383,0.545000
0.203949,0.001382,0.546000
0.209052,0.001380,0.546000
0.214152,0.001377,0.546000
0.219250,0.001374,0.546000
0.223935,0.001368,0.545000
0.229018,0.001365,0.545000
0.234099,0.001362,0.545000
0.238740,0.001357,0.544000
0.243808,0.001353,0.544000
0.000000,0.000000,0.000000
0.000000,0.000000,0.000000
0.000000,0.000000,0.000000
0.000000,0.000000,0.000000
0.000000,0.000000,0.000000
0.000000,0.000000,0.000000
0.245362,0.001168,0.478000
0.249806,0.001165,0.478000
0.254250,0.001162,0.478000
0.259234,0.001161,0.479000
0.263687,0.001157,0.479000
0.268140,0.001154,0.479000
0.273162,0.001153,0.480000
0.277625,0.001149,0.480000
0.282676,0.001148,0.481000
0.287151,0.001145,0.481000
0.292232,0.001143,0.482000
0.297334,0.001142,0.483000
0.302456,0.001141,0.484000
0.306964,0.001137,0.484000
0.312118,0.001135,0.485000
0.317946,0.001136,0.487000
0.323151,0.001135,0.488000
0.328378,0.001133,0.489000
0.333627,0.001131,0.490000
0.338898,0.001130,0.491000
0.344891,0.001130,0.493000
0.350216,0.001128,0.494000
0.356282,0.001128,0.496000
0.362390,0.001129,0.498000
0.368541,0.001129,0.500000
0.374733,0.001129,0.502000
0.381725,0.001131,0.505000
0.388778,0.001133,0.508000
0.395893,0.001135,0.511000
0.403071,0.001137,0.514000
0.410312,0.001139,0.517000
0.416813,0.001139,0.519000
0.424170,0.001141,0.522000
0.430770,0.001140,0.524000
0.437414,0.001139,0.526000
0.444103,0.001139,0.528000
0.450838,0.001138,0.530000
0.456758,0.001135,0.531000
0.462705,0.001132,0.532000
0.468679,0.001129,0.533000
0.000000,0.000000,0.000000
0.000000,0.000000,0.000000
0.000000,0.000000,0.000000
0.000000,0.000000,0.000000
0.000000,0.000000,0.000000
0.000000,0.000000,0.000000
0.000000,0.000000,0.000000
0.000000,0.000000,0.000000
0.000000,0.000000,0.000000
0.000000,0.000000,0.000000
-0.000000,0.000000,0.000000
-0.000000,0.000000,0.000000
-0.000000,0.000000,0.000000
-0.000000,0.000000,0.000000
-0.000000,0.000000,0.000000
-0.000000,0.000000,0.000000
-0.000000,0.000000,0.000000
-0.000000,0.000000,0.000000
-0.000000,0.000000,0.000000
-0.000000,0.000000,0.000000
-0.000000,0.000000,0.000000
-0.000000,0.000000,0.000000
-0.000000,0.000000,0.000000
-0.000000,0.000000,0.000000
-0.000000,0.000000,0.000000
-0.000000,0.000000,0.000000
-0.000000,0.000000,0.000000
-0.000000,0.000000,0.000000
-0.000000,0.000000,0.000000
-0.000000,0.000000,0.000000
-0.000000,0.000000,0.000000
-0.340666,0.004866,0.421000
-0.337495,0.004881,0.422000
-0.334311,0.004896,0.423000
-0.331894,0.004923,0.425000
-0.329444,0.004950,0.427000
-0.326961,0.004977,0.429000
-0.324445,0.005003,0.431000
-0.321153,0.005019,0.432000
-0.318580,0.005046,0.434000
-0.315973,0.005073,0.436000
-0.312618,0.005089,0.437000
-0.309953,0.005116,0.439000
-0.306558,0.005131,0.440000
-0.303835,0.005159,0.442000
-0.300400,0.005174,0.443000
-0.297617,0.005202,0.445000
-0.294140,0.005218,0.446000
-0.291297,0.005245,0.448000
-0.287779,0.005261,0.449000
-0.284875,0.005289,0.451000
-0.281314,0.005304,0.452000
-0.278348,0.005332,0.454000
-0.275347,0.005360,0.456000
-0.271715,0.005376,0.457000
-0.268651,0.005403,0.459000
-0.264974,0.005419,0.460000
-0.261846,0.005447,0.462000
-0.258682,0.005475,0.464000
-0.254932,0.005491,0.465000
-0.251702,0.005519,0.467000
-0.247905,0.005535,0.468000
-0.244610,0.005563,0.470000
-0.241277,0.005591,0.472000
-0.237404,0.005607,0.473000
-0.234004,0.005635,0.475000
-0.230566,0.005663,0.477000
-0.226615,0.005679,0.478000
-0.223109,0.005707,0.480000
-0.219565,0.005734,0.482000
-0.215981,0.005762,0.484000
-0.212359,0.005790,0.486000
-0.208697,0.005818,0.488000
-0.204577,0.005834,0.489000
-0.200846,0.005862,0.491000
-0.197074,0.005890,0.493000
-0.193264,0.005918,0.495000
-0.189413,0.005946,0.497000
-0.185522,0.005973,0.499000
-0.181954,0.006013,0.502000
-0.177974,0.006041,0.504000
-0.173954,0.006068,0.506000
-0.169893,0.006096,0.508000
-0.165792,0.006124,0.510000
-0.161651,0.006151,0.512000
-0.157469,0.006179,0.514000
-0.153246,0.006206,0.516000
-0.148983,0.006234,0.518000
-0.144680,0.006261,0.520000
-0.140336,0.006288,0.522000
-0.135951,0.006315,0.524000
-0.131775,0.006355,0.527000
-0.127300,0.006382,0.529000
-0.122784,0.006409,0.531000
-0.118227,0.006436,0.533000
-0.113630,0.006463,0.535000
-0.108992,0.006489,0.537000
-0.104507,0.006528,0.540000
-0.099779,0.006555,0.542000
-0.095010,0.006581,0.544000
-0.090201,0.006608,0.546000
-0.085196,0.006622,0.547000
-0.080316,0.006648,0.549000
-0.075259,0.006662,0.550000
-0.070181,0.006676,0.551000
-0.065082,0.006690,0.552000
-0.059853,0.006691,0.552000
-0.054722,0.006705,0.553000
-0.000000,0.000000,0.000000
-0.000000,0.000000,0.000000
-0.000000,0.000000,0.000000
-0.000000,0.000000,0.000000
-0.000000,0.000000,0.000000
-0.000000,0.000000,0.000000
-0.000000,0.000000,0.000000
-0.011927,0.006275,0.517000
-0.007019,0.006275,0.517000
-0.002111,0.006275,0.517000
0.002798,0.006275,0.517000
0.007721,0.006287,0.518000
0.012639,0.006287,0.518000
0.017590,0.006299,0.519000
0.022561,0.006311,0.520000
0.027496,0.006310,0.520000
0.032494,0.006322,0.521000
0.037509,0.006333,0.522000
0.042462,0.006332,0.522000
0.047504,0.006343,0.523000
0.052564,0.006354,0.524000
0.057642,0.006365,0.525000
0.062617,0.006364,0.525000
0.067720,0.006374,0.526000
0.072841,0.006385,0.527000
0.077978,0.006395,0.528000
0.082976,0.006394,0.528000
0.088137,0.006404,0.529000
0.093316,0.006414,0.530000
0.098512,0.006424,0.531000
0.103724,0.006434,0.532000
0.108748,0.006431,0.532000
0.113983,0.006441,0.533000
0.119235,0.006450,0.534000
0.124503,0.006460,0.535000
0.129787,0.006469,0.536000
0.134836,0.006466,0.536000
0.140143,0.006475,0.537000
0.145466,0.006484,0.538000
0.150805,0.006493,0.539000
0.156160,0.006502,0.540000
0.161232,0.006498,0.540000
0.166609,0.006507,0.541000
0.172002,0.006515,0.542000
0.177411,0.006524,0.543000
0.182499,0.006520,0.543000
0.187930,0.006528,0.544000
0.193378,0.006536,0.545000
0.198476,0.006532,0.545000
0.203946,0.006540,0.546000
0.209049,0.006536,0.546000
0.214149,0.006532,0.546000
0.219247,0.006528,0.546000
0.224342,0.006524,0.546000
0.229014,0.006507,0.545000
0.234096,0.006503,0.545000
0.239175,0.006499,0.545000
0.244252,0.006494,0.545000
0.000000,0.000000,0.000000
0.000000,0.000000,0.000000
0.000000,0.000000,0.000000
0.000000,0.000000,0.000000
0.000000,0.000000,0.000000
0.000000,0.000000,0.000000
0.245358,0.005667,0.478000
0.249802,0.005663,0.478000
0.254246,0.005659,0.478000
0.259230,0.005667,0.479000
0.263683,0.005662,0.479000
0.268136,0.005658,0.479000
0.273158,0.005666,0.480000
0.277621,0.005661,0.480000
0.282673,0.005669,0.481000
0.287147,0.005665,0.481000
0.292228,0.005672,0.482000
0.297330,0.005679,0.483000
0.301827,0.005675,0.483000
0.306960,0.005683,0.484000
0.312114,0.005690,0.485000
0.317289,0.005697,0.486000
0.323147,0.005716,0.488000
0.328374,0.005724,0.489000
0.333623,0.005731,0.490000
0.338894,0.005739,0.491000
0.344887,0.005758,0.493000
0.350212,0.005765,0.494000
0.356278,0.005784,0.496000
0.362386,0.005803,0.498000
0.368536,0.005822,0.500000
0.374729,0.005841,0.502000
0.381720,0.005872,0.505000
0.388774,0.005902,0.508000
0.395889,0.005933,0.511000
0.403067,0.005963,0.514000
0.410308,0.005994,0.517000
0.416808,0.006012,0.519000
0.424166,0.006043,0.522000
0.430765,0.006062,0.524000
0.437409,0.006081,0.526000
0.444099,0.006099,0.528000
0.450833,0.006118,0.530000
0.456753,0.006125,0.531000
0.462700,0.006133,0.532000
0.467795,0.006128,0.532000
0.000000,0.000000,0.000000
0.000000,0.000000,0.000000
0.000000,0.000000,0.000000
0.000000,0.000000,0.000000
0.000000,0.000000,0.000000
0.000000,0.000000,0.000000
0.000000,0.000000,0.000000
0.000000,0.000000,0.000000
0.000000,0.000000,0.000000
0.000000,0.000000,0.000000
-0.000000,0.000000,0.000000
-0.000000,0.000000,0.000000
-0.000000,0.000000,0.000000
-0.000000,0.000000,0.000000
-0.000000,0.000000,0.000000
-0.000000,0.000000,0.000000
-0.000000,0.000000,0.000000
-0.000000,0.000000,0.000000
-0.000000,0.000000,0.000000
-0.000000,0.000000,0.000000
-0.000000,0.000000,0.000000
-0.000000,0.000000,0.000000
-0.000000,0.000000,0.000000
-0.000000,0.000000,0.000000
-0.000000,0.000000,0.000000
-0.000000,0.000000,0.000000
-0.000000,0.000000,0.000000
-0.000000,0.000000,0.000000
-0.000000,0.000000,0.000000
-0.000000,0.000000,0.000000
-0.000000,0.000000,0.000000
-0.340663,0.008812,0.421000
-0.337492,0.008837,0.422000
-0.334308,0.008861,0.423000
-0.331891,0.008906,0.425000
-0.329441,0.008952,0.427000
-0.326958,0.008997,0.429000
-0.324442,0.009043,0.431000
-0.321149,0.009067,0.432000
-0.318576,0.009113,0.434000
-0.315969,0.009159,0.436000
-0.312614,0.009184,0.437000
-0.309949,0.009230,0.439000
-0.306554,0.009255,0.440000
-0.303831,0.009302,0.442000
-0.300395,0.009327,0.443000
-0.297613,0.009374,0.445000
-0.294136,0.009399,0.446000
-0.291293,0.009446,0.448000
-0.287774,0.009472,0.449000
-0.284871,0.009518,0.451000
-0.281309,0.009544,0.452000
-0.278344,0.009591,0.454000
-0.274738,0.009617,0.455000
-0.271710,0.009665,0.457000
-0.268061,0.009691,0.458000
-0.264970,0.009738,0.460000
-0.261842,0.009785,0.462000
-0.258119,0.009812,0.463000
-0.254927,0.009859,0.465000
-0.251697,0.009907,0.467000
-0.247901,0.009933,0.468000
-0.244605,0.009981,0.470000
-0.240761,0.010007,0.471000
-0.237399,0.010055,0.473000
-0.233999,0.010103,0.475000
-0.230078,0.010130,0.476000
-0.226611,0.010177,0.478000
-0.223105,0.010225,0.480000
-0.219560,0.010273,0.482000
-0.215530,0.010300,0.483000
-0.211917,0.010348,0.485000
-0.208264,0.010396,0.487000
-0.204572,0.010444,0.489000
-0.200841,0.010492,0.491000
-0.197070,0.010540,0.493000
-0.193259,0.010588,0.495000
-0.189408,0.010636,0.497000
-0.185518,0.010683,0.499000
-0.181587,0.010731,0.501000
-0.177617,0.010779,0.503000
-0.173606,0.010827,0.505000
-0.169554,0.010875,0.507000
-0.165788,0.010944,0.510000
-0.161647,0.010992,0.512000
-0.157465,0.011039,0.514000
-0.153242,0.011087,0.516000
-0.148979,0.011135,0.518000
-0.144676,0.011182,0.520000
-0.140332,0.011229,0.522000
-0.135947,0.011277,0.524000
-0.131522,0.011324,0.526000
-0.127056,0.011371,0.528000
-0.122780,0.011440,0.531000
-0.118224,0.011487,0.533000
-0.113626,0.011533,0.535000
-0.108989,0.011580,0.537000
-0.104310,0.011627,0.539000
-0.099592,0.011673,0.541000
-0.094833,0.011720,0.543000
-0.090033,0.011766,0.545000
-0.085193,0.011812,0.547000
-0.080313,0.011858,0.549000
-0.075257,0.011882,0.550000
-0.070179,0.011906,0.551000
-0.064962,0.011909,0.551000
-0.059852,0.011933,0.552000
-0.054721,0.011956,0.553000
-0.000000,0.000000,0.000000
-0.000000,0.000000,0.000000
-0.000000,0.000000,0.000000
-0.000000,0.000000,0.000000
-0.000000,0.000000,0.000000
-0.000000,0.000000,0.000000
-0.016736,0.011122,0.514000
-0.011880,0.011144,0.515000
-0.007005,0.011166,0.516000
-0.002106,0.011166,0.516000
0.002798,0.011188,0.517000
0.007706,0.011188,0.517000
0.012639,0.011209,0.518000
0.017590,0.011231,0.519000
0.022517,0.011230,0.519000
0.027496,0.011251,0.520000
0.032493,0.011272,0.521000
0.037437,0.011271,0.521000
0.042461,0.011291,0.522000
0.047503,0.011311,0.523000
0.052563,0.011331,0.524000
0.057530,0.011330,0.524000
0.062616,0.011349,0.525000
0.067719,0.011369,0.526000
0.072839,0.011388,0.527000
0.077828,0.011386,0.527000
0.082973,0.011405,0.528000
0.088135,0.011424,0.529000
0.093314,0.011443,0.530000
0.098509,0.011461,0.531000
0.103526,0.011458,0.531000
0.108745,0.011477,0.532000
0.113980,0.011495,0.533000
0.119232,0.011513,0.534000
0.124500,0.011531,0.535000
0.129542,0.011527,0.535000
0.134833,0.011545,0.536000
0.140139,0.011562,0.537000
0.145462,0.011579,0.538000
0.150801,0.011597,0.539000
0.155866,0.011592,0.539000
0.161228,0.011609,0.540000
0.166605,0.011626,0.541000
0.171998,0.011643,0.542000
0.177080,0.011638,0.542000
0.182495,0.011654,0.543000
0.187926,0.011671,0.544000
0.193018,0.011666,0.544000
0.198472,0.011682,0.545000
0.203941,0.011698,0.546000
0.209044,0.011693,0.546000
0.214144,0.011687,0.546000
0.219242,0.011682,0.546000
0.224337,0.011676,0.546000
0.229430,0.011670,0.546000
0.234091,0.011643,0.545000
0.239170,0.011638,0.545000
0.244247,0.011632,0.545000
0.249322,0.011626,0.545000
0.000000,0.000000,0.000000
0.000000,0.000000,0.000000
0.000000,0.000000,0.000000
0.000000,0.000000,0.000000
0.000000,0.000000,0.000000
0.000000,0.000000,0.000000
0.249798,0.010161,0.478000
0.254773,0.010177,0.479000
0.259226,0.010172,0.479000
0.263678,0.010167,0.479000
0.268131,0.010162,0.479000
0.273153,0.010178,0.480000
0.277616,0.010173,0.480000
0.282668,0.010189,0.481000
0.287142,0.010184,0.481000
0.292224,0.010200,0.482000
0.297325,0.010217,0.483000
0.301822,0.010212,0.483000
0.306955,0.010228,0.484000
0.312109,0.010244,0.485000
0.317284,0.010261,0.486000
0.322480,0.010277,0.487000
0.328370,0.010315,0.489000
0.333618,0.010331,0.490000
0.338889,0.010348,0.491000
0.344183,0.010364,0.492000
0.350207,0.010402,0.494000
0.356274,0.010439,0.496000
0.361654,0.010456,0.497000
0.368532,0.010515,0.500000
0.374725,0.010553,0.502000
0.381716,0.010612,0.505000
0.388769,0.010671,0.508000
0.395885,0.010730,0.511000
0.403063,0.010789,0.514000
0.410303,0.010848,0.517000
0.417607,0.010907,0.520000
0.424162,0.010945,0.522000
0.430761,0.010983,0.524000
0.437405,0.011021,0.526000
0.444095,0.011060,0.528000
0.450830,0.011098,0.530000
0.456750,0.011116,0.531000
0.462697,0.011133,0.532000
0.467791,0.011130,0.532000
0.000000,0.000000,0.000000
0.000000,0.000000,0.000000
0.000000,0.000000,0.000000
0.000000,0.000000,0.000000
0.000000,0.000000,0.000000
0.000000,0.000000,0.000000
0.000000,0.000000,0.000000
0.000000,0.000000,0.000000
0.000000,0.000000,0.000000
0.000000,0.000000,0.000000
-0.000000,0.000000,0.000000
-0.000000,0.000000,0.000000
-0.000000,0.000000,0.000000
-0.000000,0.000000,0.000000
-0.000000,0.000000,0.000000
-0.000000,0.000000,0.000000
-0.000000,0.000000,0.000000
-0.000000,0.000000,0.000000
-0.000000,0.000000,0.000000
-0.000000,0.000000,0.000000
-0.000000,0.000000,0.000000
-0.000000,0.000000,0.000000
-0.000000,0.000000,0.000000
-0.000000,0.000000,0.000000
-0.000000,0.000000,0.000000
-0.000000,0.000000,0.000000
-0.000000,0.000000,0.000000
-0.000000,0.000000,0.000000
-0.000000,0.000000,0.000000
-0.000000,0.000000,0.000000
-0.000000,0.000000,0.000000
-0.340660,0.012759,0.421000
-0.337489,0.012792,0.422000
-0.334305,0.012826,0.423000
-0.331887,0.012889,0.425000
-0.328666,0.012923,0.426000
-0.326192,0.012987,0.428000
-0.323685,0.013051,0.430000
-0.321145,0.013116,0.432000
-0.318572,0.013180,0.434000
-0.315241,0.013215,0.435000
-0.312610,0.013280,0.437000
-0.309239,0.013314,0.438000
-0.306550,0.013379,0.440000
-0.303139,0.013414,0.441000
-0.300391,0.013480,0.443000
-0.296939,0.013515,0.444000
-0.294131,0.013581,0.446000
-0.290638,0.013616,0.447000
-0.287769,0.013682,0.449000
-0.284234,0.013718,0.450000
-0.281304,0.013784,0.452000
-0.277725,0.013820,0.453000
-0.274733,0.013887,0.455000
-0.271705,0.013953,0.457000
-0.268056,0.013989,0.458000
-0.264964,0.014056,0.460000
-0.261269,0.014093,0.461000
-0.258114,0.014160,0.463000
-0.254921,0.014227,0.465000
-0.251153,0.014264,0.466000
-0.247895,0.014331,0.468000
-0.244599,0.014399,0.470000
-0.240755,0.014436,0.471000
-0.237393,0.014503,0.473000
-0.233994,0.014571,0.475000
-0.230072,0.014608,0.476000
-0.226605,0.014676,0.478000
-0.223099,0.014744,0.480000
-0.219099,0.014781,0.481000
-0.215524,0.014849,0.483000
-0.211911,0.014917,0.485000
-0.208258,0.014985,0.487000
-0.204566,0.015053,0.489000
-0.200835,0.015121,0.491000
-0.197064,0.015189,0.493000
-0.193253,0.015257,0.495000
-0.189403,0.015325,0.497000
-0.185512,0.015393,0.499000
-0.181582,0.015461,0.501000
-0.177611,0.015529,0.503000
-0.173600,0.015597,0.505000
-0.169549,0.015665,0.507000
-0.165457,0.015733,0.509000
-0.161326,0.015801,0.511000
-0.157153,0.015869,0.513000
-0.152940,0.015936,0.515000
-0.148974,0.016035,0.518000
-0.144671,0.016103,0.520000
-0.140327,0.016170,0.522000
-0.135942,0.016238,0.524000
-0.131517,0.016305,0.526000
-0.127051,0.016372,0.528000
-0.122545,0.016439,0.530000
-0.117997,0.016506,0.532000
-0.113622,0.016604,0.535000
-0.108985,0.016671,0.537000
-0.104306,0.016737,0.539000
-0.099588,0.016804,0.541000
-0.094829,0.016870,0.543000
-0.090030,0.016936,0.545000
-0.085190,0.017002,0.547000
-0.080164,0.017037,0.548000
-0.075117,0.017071,0.549000
-0.070049,0.017105,0.550000
-0.064959,0.017140,0.551000
-0.059741,0.017142,0.551000
-0.000000,0.000000,0.000000
-0.000000,0.000000,0.000000
-0.000000,0.000000,0.000000
-0.000000,0.000000,0.000000
-0.000000,0.000000,0.000000
-0.000000,0.000000,0.000000
-0.000000,0.000000,0.000000
-0.016702,0.015974,0.513000
-0.011856,0.016006,0.514000
-0.006991,0.016037,0.515000
-0.002106,0.016069,0.516000
0.002792,0.016069,0.516000
0.007706,0.016100,0.517000
0.012638,0.016131,0.518000
0.017589,0.016162,0.519000
0.022516,0.016161,0.519000
0.027495,0.016191,0.520000
0.032492,0.016221,0.521000
0.037435,0.016220,0.521000
0.042459,0.016249,0.522000
0.047501,0.016279,0.523000
0.052460,0.016277,0.523000
0.057528,0.016306,0.524000
0.062613,0.016334,0.525000
0.067716,0.016363,0.526000
0.072698,0.016360,0.526000
0.077826,0.016388,0.527000
0.082970,0.016416,0.528000
0.088132,0.016444,0.529000
0.093134,0.016440,0.529000
0.098320,0.016468,0.530000
0.103522,0.016495,0.531000
0.108741,0.016522,0.532000
0.113976,0.016548,0.533000
0.119005,0.016544,0.533000
0.124263,0.016570,0.534000
0.129537,0.016597,0.535000
0.134828,0.016623,0.536000
0.140135,0.016649,0.537000
0.145457,0.016674,0.538000
0.150516,0.016669,0.538000
0.155861,0.016694,0.539000
0.161222,0.016720,0.540000
0.166599,0.016745,0.541000
0.171992,0.016770,0.542000
0.177074,0.016764,0.542000
0.182489,0.016788,0.543000
0.187920,0.016813,0.544000
0.193012,0.016807,0.544000
0.198466,0.016831,0.545000
0.203562,0.016824,0.545000
0.209038,0.016849,0.546000
0.214138,0.016842,0.546000
0.219235,0.016835,0.546000
0.224330,0.016828,0.546000
0.229423,0.016821,0.546000
0.234084,0.016784,0.545000
0.239163,0.016777,0.545000
0.244240,0.016770,0.545000
0.248858,0.016732,0.544000
0.000000,0.000000,0.000000
0.000000,0.000000,0.000000
0.000000,0.000000,0.000000
0.000000,0.000000,0.000000
0.000000,0.000000,0.000000
0.000000,0.000000,0.000000
0.249792,0.014659,0.478000
0.254767,0.014684,0.479000
0.259220,0.014678,0.479000
0.263673,0.014672,0.479000
0.268685,0.014696,0.480000
0.273148,0.014690,0.480000
0.277611,0.014685,0.480000
0.282663,0.014709,0.481000
0.287137,0.014704,0.481000
0.292218,0.014729,0.482000
0.297320,0.014754,0.483000
0.301817,0.014748,0.483000
0.306950,0.014773,0.484000
0.312104,0.014798,0.485000
0.317279,0.014824,0.486000
0.322475,0.014849,0.487000
0.327693,0.014875,0.488000
0.333614,0.014931,0.490000
0.338885,0.014956,0.491000
0.344178,0.014982,0.492000
0.350203,0.015038,0.494000
0.355551,0.015064,0.495000
0.361650,0.015121,0.497000
0.368528,0.015208,0.500000
0.374721,0.015265,0.502000
0.381712,0.015352,0.505000
0.388765,0.015439,0.508000
0.396656,0.015557,0.512000
0.403843,0.015644,0.515000
0.410300,0.015702,0.517000
0.417604,0.015789,0.520000
0.424158,0.015847,0.522000
0.430758,0.015905,0.524000
0.437402,0.015962,0.526000
0.444092,0.016020,0.528000
0.450827,0.016078,0.530000
0.456747,0.016106,0.531000
0.462694,0.016134,0.532000
0.467788,0.016132,0.532000
0.000000,0.000000,0.000000
0.000000,0.000000,0.000000
0.000000,0.000000,0.000000
0.000000,0.000000,0.000000
0.000000,0.000000,0.000000
0.000000,0.000000,0.000000
0.000000,0.000000,0.000000
0.000000,0.000000,0.000000
0.000000,0.000000,0.000000
0.000000,0.000000,0.000000
-0.000000,0.000000,0.000000
-0.000000,0.000000,0.000000
-0.000000,0.000000,0.000000
-0.000000,0.000000,0.000000
-0.000000,0.000000,0.000000
-0.000000,0.000000,0.000000
-0.000000,0.000000,0.000000
-0.000000,0.000000,0.000000
-0.000000,0.000000,0.000000
-0.000000,0.000000,0.000000
-0.000000,0.000000,0.000000
-0.000000,0.000000,0.000000
-0.000000,0.000000,0.000000
-0.000000,0.000000,0.000000
-0.000000,0.000000,0.000000
-0.000000,0.000000,0.000000
-0.000000,0.000000,0.000000
-0.000000,0.000000,0.000000
-0.000000,0.000000,0.000000
-0.000000,0.000000,0.000000
-0.342995,0.016624,0.419000
-0.339848,0.016666,0.420000
-0.336686,0.016708,0.421000
-0.334302,0.016790,0.423000
-0.331103,0.016833,0.424000
-0.328662,0.016915,0.426000
-0.326189,0.016998,0.428000
-0.323682,0.017081,0.430000
-0.321142,0.017164,0.432000
-0.317834,0.017208,0.433000
-0.315237,0.017291,0.435000
-0.312606,0.017375,0.437000
-0.309235,0.017419,0.438000
-0.306545,0.017503,0.440000
-0.303134,0.017547,0.441000
-0.300386,0.017632,0.443000
-0.296934,0.017677,0.444000
-0.294126,0.017762,0.446000
-0.290633,0.017807,0.447000
-0.287764,0.017892,0.449000
-0.284228,0.017938,0.450000
-0.281298,0.018024,0.452000
-0.277720,0.018069,0.453000
-0.274727,0.018155,0.455000
-0.271105,0.018202,0.456000
-0.268049,0.018288,0.458000
-0.264958,0.018374,0.460000
-0.261263,0.018421,0.461000
-0.258107,0.018508,0.463000
-0.254915,0.018595,0.465000
-0.251146,0.018642,0.466000
-0.247888,0.018729,0.468000
-0.244072,0.018776,0.469000
-0.240748,0.018864,0.471000
-0.237387,0.018951,0.473000
-0.233494,0.018999,0.474000
-0.230065,0.019086,0.476000
-0.226598,0.019174,0.478000
-0.222627,0.019222,0.479000
-0.219092,0.019310,0.481000
-0.215517,0.019398,0.483000
-0.211904,0.019486,0.485000
-0.208251,0.019574,0.487000
-0.204559,0.019662,0.489000
-0.200828,0.019750,0.491000
-0.196657,0.019798,0.492000
-0.192856,0.019886,0.494000
-0.189015,0.019974,0.496000
-0.185505,0.020103,0.499000
-0.181575,0.020191,0.501000
-0.177604,0.020279,0.503000
-0.173593,0.020367,0.505000
-0.169542,0.020455,0.507000
-0.165451,0.020543,0.509000
-0.161319,0.020631,0.511000
-0.157147,0.020719,0.513000
-0.152934,0.020807,0.515000
-0.148680,0.020895,0.517000
-0.144387,0.020982,0.519000
-0.140052,0.021070,0.521000
-0.135936,0.021198,0.524000
-0.131511,0.021285,0.526000
-0.127045,0.021372,0.528000
-0.122539,0.021460,0.530000
-0.117992,0.021546,0.532000
-0.113405,0.021633,0.534000
-0.108777,0.021720,0.536000
-0.104108,0.021806,0.538000
-0.099583,0.021933,0.541000
-0.094824,0.022019,0.543000
-0.089860,0.022065,0.544000
-0.085030,0.022151,0.546000
-0.080160,0.022236,0.548000
-0.075113,0.022281,0.549000
-0.070045,0.022325,0.550000
-0.064838,0.022329,0.550000
-0.059738,0.022373,0.551000
-0.000000,0.000000,0.000000
-0.000000,0.000000,0.000000
-0.000000,0.000000,0.000000
-0.000000,0.000000,0.000000
-0.000000,0.000000,0.000000
-0.000000,0.000000,0.000000
-0.000000,0.000000,0.000000
-0.016701,0.020847,0.513000
-0.011856,0.020888,0.514000
-0.006977,0.020889,0.514000
-0.002102,0.020930,0.515000
0.002792,0.020971,0.516000
0.007706,0.021012,0.517000
0.012638,0.021052,0.518000
0.017555,0.021051,0.518000
0.022515,0.021091,0.519000
0.027494,0.021131,0.520000
0.032428,0.021129,0.520000
0.037434,0.021168,0.521000
0.042457,0.021207,0.522000
0.047499,0.021246,0.523000
0.052458,0.021243,0.523000
0.057526,0.021281,0.524000
0.062611,0.021319,0.525000
0.067584,0.021316,0.525000
0.072695,0.021353,0.526000
0.077822,0.021390,0.527000
0.082967,0.021427,0.528000
0.087962,0.021423,0.528000
0.093130,0.021459,0.529000
0.098316,0.021495,0.530000
0.103518,0.021531,0.531000
0.108736,0.021566,0.532000
0.113758,0.021561,0.532000
0.118999,0.021596,0.533000
0.124258,0.021631,0.534000
0.129532,0.021666,0.535000
0.134822,0.021700,0.536000
0.139868,0.021694,0.536000
0.145181,0.021728,0.537000
0.150510,0.021762,0.538000
0.155855,0.021796,0.539000
0.161216,0.021829,0.540000
0.166285,0.021822,0.540000
0.171668,0.021856,0.541000
0.177067,0.021889,0.542000
0.182482,0.021922,0.543000
0.187568,0.021914,0.543000
0.193005,0.021947,0.544000
0.198459,0.021979,0.545000
0.203555,0.021972,0.545000
0.209031,0.022004,0.546000
0.214131,0.021996,0.546000
0.219228,0.021988,0.546000
0.224323,0.021980,0.546000
0.229416,0.021972,0.546000
0.234077,0.021923,0.545000
0.239156,0.021915,0.545000
0.243785,0.021867,0.544000
0.248851,0.021858,0.544000
0.253448,0.021810,0.543000
0.258502,0.021802,0.543000
0.000000,0.000000,0.000000
0.000000,0.000000,0.000000
0.000000,0.000000,0.000000
0.000000,0.000000,0.000000
0.249785,0.019156,0.478000
0.254761,0.019189,0.479000
0.259214,0.019183,0.479000
0.263666,0.019176,0.479000
0.268679,0.019209,0.480000
0.273142,0.019202,0.480000
0.278183,0.019236,0.481000
0.282656,0.019229,0.481000
0.287728,0.019263,0.482000
0.292212,0.019256,0.482000
0.297314,0.019290,0.483000
0.302436,0.019324,0.484000
0.306945,0.019318,0.484000
0.312099,0.019352,0.485000
0.317274,0.019387,0.486000
0.322470,0.019421,0.487000
0.327688,0.019455,0.488000
0.333609,0.019530,0.490000
0.338880,0.019565,0.491000
0.344173,0.019600,0.492000
0.350198,0.019675,0.494000
0.355546,0.019710,0.495000
0.361645,0.019785,0.497000
0.368524,0.019900,0.500000
0.374717,0.019976,0.502000
0.381708,0.020092,0.505000
0.389527,0.020247,0.509000
0.396652,0.020363,0.512000
0.403840,0.020479,0.515000
0.411090,0.020595,0.518000
0.417601,0.020672,0.520000
0.424968,0.020788,0.523000
0.431577,0.020866,0.525000
0.438231,0.020943,0.527000
0.444089,0.020980,0.528000
0.450824,0.021058,0.530000
0.456745,0.021096,0.531000
0.462692,0.021134,0.532000
0.467786,0.021133,0.532000
0.000000,0.000000,0.000000
0.000000,0.000000,0.000000
0.000000,0.000000,0.000000
0.000000,0.000000,0.000000
0.000000,0.000000,0.000000
0.000000,0.000000,0.000000
0.000000,0.000000,0.000000
0.000000,0.000000,0.000000
0.000000,0.000000,0.000000
0.000000,0.000000,0.000000
-0.000000,0.000000,0.000000
-0.000000,0.000000,0.000000
-0.000000,0.000000,0.000000
-0.000000,0.000000,0.000000
-0.000000,0.000000,0.000000
-0.000000,0.000000,0.000000
-0.000000,0.000000,0.000000
-0.000000,0.000000,0.000000
-0.000000,0.000000,0.000000
-0.000000,0.000000,0.000000
-0.000000,0.000000,0.000000
-0.000000,0.000000,0.000000
-0.000000,0.000000,0.000000
-0.000000,0.000000,0.000000
-0.000000,0.000000,0.000000
-0.000000,0.000000,0.000000
-0.000000,0.000000,0.000000
-0.000000,0.000000,0.000000
-0.000000,0.000000,0.000000
-0.000000,0.000000,0.000000
-0.000000,0.000000,0.000000
-0.339845,0.020603,0.420000
-0.336684,0.020654,0.421000
-0.333509,0.020706,0.422000
-0.331100,0.020807,0.424000
-0.328659,0.020908,0.426000
-0.326185,0.021009,0.428000
-0.323678,0.021110,0.430000
-0.320394,0.021163,0.431000
-0.317830,0.021265,0.433000
-0.315233,0.021367,0.435000
-0.311886,0.021421,0.436000
-0.309230,0.021523,0.438000
-0.306541,0.021626,0.440000
-0.303129,0.021681,0.441000
-0.300381,0.021784,0.443000
-0.296929,0.021839,0.444000
-0.293461,0.021894,0.445000
-0.290627,0.021998,0.447000
-0.287117,0.022053,0.448000
-0.284222,0.022158,0.450000
-0.280670,0.022214,0.451000
-0.277713,0.022319,0.453000
-0.274721,0.022424,0.455000
-0.271098,0.022480,0.456000
-0.268043,0.022586,0.458000
-0.264375,0.022643,0.459000
-0.261256,0.022749,0.461000
-0.258100,0.022855,0.463000
-0.254359,0.022913,0.464000
-0.251139,0.023019,0.466000
-0.247881,0.023126,0.468000
-0.244065,0.023184,0.469000
-0.240741,0.023291,0.471000
-0.237379,0.023398,0.473000
-0.233486,0.023456,0.474000
-0.230057,0.023564,0.476000
-0.226590,0.023672,0.478000
-0.222619,0.023730,0.479000
-0.219083,0.023838,0.481000
-0.215509,0.023946,0.483000
-0.211896,0.024054,0.485000
-0.208243,0.024162,0.487000
-0.204133,0.024220,0.488000
-0.200411,0.024329,0.490000
-0.196649,0.024437,0.492000
-0.192848,0.024545,0.494000
-0.189006,0.024653,0.496000
-0.185125,0.024762,0.498000
-0.181204,0.024870,0.500000
-0.177243,0.024978,0.502000
-0.173241,0.025086,0.504000
-0.169534,0.025244,0.507000
-0.165443,0.025353,0.509000
-0.161311,0.025461,0.511000
-0.157139,0.025569,0.513000
-0.152926,0.025677,0.515000
-0.148673,0.025785,0.517000
-0.144379,0.025892,0.519000
-0.140045,0.026000,0.521000
-0.135670,0.026107,0.523000
-0.131504,0.026265,0.526000
-0.127039,0.026372,0.528000
-0.122532,0.026479,0.530000
-0.117986,0.026586,0.532000
-0.113398,0.026693,0.534000
-0.108771,0.026800,0.536000
-0.104102,0.026906,0.538000
-0.099394,0.027012,0.540000
-0.094644,0.027118,0.542000
-0.089855,0.027224,0.544000
-0.085025,0.027329,0.546000
-0.080009,0.027385,0.547000
-0.074972,0.027440,0.548000
-0.069914,0.027494,0.549000
-0.064834,0.027549,0.550000
-0.059626,0.027553,0.550000
-0.000000,0.000000,0.000000
-0.000000,0.000000,0.000000
-0.000000,0.000000,0.000000
-0.000000,0.000000,0.000000
-0.000000,0.000000,0.000000
-0.000000,0.000000,0.000000
-0.000000,0.000000,0.000000
-0.016668,0.025669,0.512000
-0.011832,0.025720,0.513000
-0.006976,0.025771,0.514000
-0.002101,0.025822,0.515000
0.002793,0.025872,0.516000
0.007705,0.025922,0.517000
0.012613,0.025922,0.517000
0.017554,0.025971,0.518000
0.022514,0.026021,0.519000
0.027492,0.026069,0.520000
0.032426,0.026068,0.520000
0.037432,0.026116,0.521000
0.042455,0.026164,0.522000
0.047406,0.026161,0.522000
0.052455,0.026209,0.523000
0.057523,0.026256,0.524000
0.062488,0.026252,0.524000
0.067581,0.026299,0.525000
0.072691,0.026345,0.526000
0.077818,0.026391,0.527000
0.082805,0.026386,0.527000
0.087957,0.026432,0.528000
0.093125,0.026476,0.529000
0.098311,0.026521,0.530000
0.103318,0.026516,0.530000
0.108526,0.026560,0.531000
0.113752,0.026604,0.532000
0.118993,0.026647,0.533000
0.124251,0.026691,0.534000
0.129526,0.026734,0.535000
0.134564,0.026727,0.535000
0.139861,0.026770,0.536000
0.145174,0.026812,0.537000
0.150503,0.026855,0.538000
0.155848,0.026897,0.539000
0.160910,0.026889,0.539000
0.166277,0.026930,0.540000
0.171660,0.026972,0.541000
0.177059,0.027013,0.542000
0.182138,0.027005,0.542000
0.187560,0.027046,0.543000
0.192997,0.027087,0.544000
0.198086,0.027078,0.544000
0.203546,0.027118,0.545000
0.209022,0.027159,0.546000
0.214122,0.027149,0.546000
0.219219,0.027140,0.546000
0.224314,0.027131,0.546000
0.229407,0.027121,0.546000
0.234068,0.027062,0.545000
0.239147,0.027053,0.545000
0.243776,0.026994,0.544000
0.248842,0.026984,0.544000
0.253440,0.026925,0.543000
0.258493,0.026916,0.543000
0.263545,0.026907,0.543000
0.000000,0.000000,0.000000
0.240385,0.023620,0.477000
0.244821,0.023612,0.477000
0.249778,0.023653,0.478000
0.254754,0.023695,0.479000
0.259206,0.023687,0.479000
0.264210,0.023729,0.480000
0.268672,0.023721,0.480000
0.273704,0.023763,0.481000
0.278176,0.023756,0.481000
0.282650,0.023749,0.481000
0.287721,0.023791,0.482000
0.292812,0.023833,0.483000
0.297308,0.023827,0.483000
0.302430,0.023869,0.484000
0.307573,0.023912,0.485000
0.312093,0.023906,0.485000
0.317268,0.023949,0.486000
0.322465,0.023993,0.487000
0.327683,0.024036,0.488000
0.333603,0.024129,0.490000
0.338875,0.024173,0.491000
0.344168,0.024217,0.492000
0.350193,0.024311,0.494000
0.355542,0.024356,0.495000
0.361641,0.024450,0.497000
0.368520,0.024593,0.500000
0.375459,0.024737,0.503000
0.382461,0.024881,0.506000
0.389524,0.025025,0.509000
0.396649,0.025169,0.512000
0.403837,0.025314,0.515000
0.411087,0.025458,0.518000
0.418401,0.025603,0.521000
0.424966,0.025700,0.523000
0.431575,0.025796,0.525000
0.438229,0.025893,0.527000
0.444929,0.025990,0.529000
0.450823,0.026038,0.530000
0.456744,0.026086,0.531000
0.462691,0.026135,0.532000
0.468665,0.026184,0.533000
0.000000,0.000000,0.000000
0.000000,0.000000,0.000000
0.000000,0.000000,0.000000
0.000000,0.000000,0.000000
0.000000,0.000000,0.000000
0.000000,0.000000,0.000000
0.000000,0.000000,0.000000
0.000000,0.000000,0.000000
0.000000,0.000000,0.000000
0.000000,0.000000,0.000000
-0.000000,0.000000,0.000000
-0.000000,0.000000,0.000000
-0.000000,0.000000,0.000000
-0.000000,0.000000,0.000000
-0.000000,0.000000,0.000000
-0.000000,0.000000,0.000000
-0.000000,0.000000,0.000000
-0.000000,0.000000,0.000000
-0.000000,0.000000,0.000000
-0.000000,0.000000,0.000000
-0.000000,0.000000,0.000000
-0.000000,0.000000,0.000000
-0.000000,0.000000,0.000000
-0.000000,0.000000,0.000000
-0.000000,0.000000,0.000000
-0.000000,0.000000,0.000000
-0.000000,0.000000,0.000000
-0.000000,0.000000,0.000000
-0.000000,0.000000,0.000000
-0.000000,0.000000,0.000000
-0.000000,0.000000,0.000000
-0.339844,0.024540,0.420000
-0.336682,0.024600,0.421000
-0.333506,0.024661,0.422000
-0.331098,0.024780,0.424000
-0.328656,0.024900,0.426000
-0.326182,0.025019,0.428000
-0.322922,0.025081,0.429000
-0.320391,0.025201,0.431000
-0.317826,0.025322,0.433000
-0.315228,0.025443,0.435000
-0.311881,0.025506,0.436000
-0.309225,0.025628,0.438000
-0.305839,0.025691,0.439000
-0.303124,0.025813,0.441000
-0.299697,0.025877,0.442000
-0.296923,0.026000,0.444000
-0.293455,0.026065,0.445000
-0.290621,0.026188,0.447000
-0.287111,0.026253,0.448000
-0.284216,0.026377,0.450000
-0.280663,0.026443,0.451000
-0.277706,0.026568,0.453000
-0.274110,0.026634,0.454000
-0.271090,0.026759,0.456000
-0.267450,0.026825,0.457000
-0.264367,0.026951,0.459000
-0.261248,0.027077,0.461000
-0.257534,0.027144,0.462000
-0.254351,0.027270,0.464000
-0.251130,0.027397,0.466000
-0.247342,0.027464,0.467000
-0.244056,0.027591,0.469000
-0.240732,0.027718,0.471000
-0.236868,0.027786,0.472000
-0.233477,0.027914,0.474000
-0.230048,0.028041,0.476000
-0.226580,0.028169,0.478000
-0.222610,0.028238,0.479000
-0.219074,0.028365,0.481000
-0.215500,0.028493,0.483000
-0.211886,0.028621,0.485000
-0.207806,0.028690,0.486000
-0.204123,0.028819,0.488000
-0.200401,0.028947,0.490000
-0.196639,0.029075,0.492000
-0.192838,0.029204,0.494000
-0.188997,0.029332,0.496000
-0.185116,0.029460,0.498000
-0.181195,0.029589,0.500000
-0.177234,0.029717,0.502000
-0.173232,0.029845,0.504000
-0.169191,0.029974,0.506000
-0.165109,0.030102,0.508000
-0.161302,0.030289,0.511000
-0.157130,0.030418,0.513000
-0.152917,0.030546,0.515000
-0.148664,0.030674,0.517000
-0.144371,0.030801,0.519000
-0.140036,0.030929,0.521000
-0.135662,0.031057,0.523000
-0.131246,0.031184,0.525000
-0.126790,0.031312,0.527000
-0.122525,0.031498,0.530000
-0.117978,0.031625,0.532000
-0.113391,0.031752,0.534000
-0.108764,0.031878,0.536000
-0.104095,0.032005,0.538000
-0.099387,0.032131,0.540000
-0.094638,0.032257,0.542000
-0.089849,0.032382,0.544000
-0.084864,0.032448,0.545000
-0.080004,0.032573,0.547000
-0.074967,0.032638,0.548000
-0.069781,0.032643,0.548000
-0.064712,0.032708,0.549000
-0.059622,0.032772,0.550000
-0.000000,0.000000,0.000000
-0.000000,0.000000,0.000000
-0.034550,0.025751,0.432000
-0.000000,0.000000,0.000000
-0.000000,0.000000,0.000000
-0.000000,0.000000,0.000000
-0.000000,0.000000,0.000000
-0.016666,0.030531,0.512000
-0.011831,0.030592,0.513000
-0.006975,0.030652,0.514000
-0.002101,0.030713,0.515000
0.002793,0.030773,0.516000
0.007690,0.030773,0.516000
0.012612,0.030832,0.517000
0.017553,0.030891,0.518000
0.022513,0.030949,0.519000
0.027491,0.031007,0.520000
0.032425,0.031005,0.520000
0.037430,0.031063,0.521000
0.042371,0.031060,0.521000
0.047403,0.031117,0.522000
0.052452,0.031173,0.523000
0.057519,0.031230,0.524000
0.062484,0.031226,0.524000
0.067577,0.031281,0.525000
0.072687,0.031336,0.526000
0.077666,0.031331,0.526000
0.082800,0.031386,0.527000
0.087952,0.031440,0.528000
0.093120,0.031493,0.529000
0.098119,0.031487,0.529000
0.103311,0.031540,0.530000
0.108520,0.031593,0.531000
0.113745,0.031646,0.532000
0.118987,0.031698,0.533000
0.124244,0.031750,0.534000
0.129276,0.031742,0.534000
0.134557,0.031793,0.535000
0.139853,0.031845,0.536000
0.145166,0.031896,0.537000
0.150495,0.031946,0.538000
0.155550,0.031937,0.538000
0.160901,0.031987,0.539000
0.166268,0.032037,0.540000
0.171651,0.032087,0.541000
0.176724,0.032078,0.541000
0.182129,0.032127,0.542000
0.187550,0.032176,0.543000
0.192987,0.032225,0.544000
0.198076,0.032215,0.544000
0.203536,0.032264,0.545000
0.208629,0.032254,0.545000
0.214112,0.032302,0.546000
