-0.262914,-0.077308,0.464000
-0.259167,-0.077485,0.465000
-0.255950,-0.077830,0.467000
-0.252695,-0.078175,0.469000
-0.248875,-0.078354,0.470000
-0.245555,-0.078700,0.472000
-0.242198,-0.079047,0.474000
-0.238804,-0.079394,0.476000
-0.234879,-0.079576,0.477000
-0.231417,-0.079924,0.479000
-0.227918,-0.080274,0.481000
-0.223916,-0.080456,0.482000
-0.220349,-0.080806,0.484000
-0.216743,-0.081157,0.486000
-0.213098,-0.081508,0.488000
-0.209415,-0.081859,0.490000
-0.205692,-0.082211,0.492000
-0.201522,-0.082396,0.493000
-0.197730,-0.082748,0.495000
-0.193898,-0.083101,0.497000
-0.190028,-0.083453,0.499000
-0.186117,-0.083806,0.501000
-0.182167,-0.084160,0.503000
-0.178176,-0.084513,0.505000
-0.174146,-0.084866,0.507000
-0.170076,-0.085220,0.509000
-0.165966,-0.085573,0.511000
-0.161815,-0.085927,0.513000
-0.157625,-0.086280,0.515000
-0.153690,-0.086801,0.518000
-0.149410,-0.087154,0.520000
-0.145089,-0.087508,0.522000
-0.140728,-0.087861,0.524000
-0.136326,-0.088214,0.526000
-0.131884,-0.088566,0.528000
-0.127402,-0.088919,0.530000
-0.122879,-0.089271,0.532000
-0.118537,-0.089791,0.535000
-0.113924,-0.090142,0.537000
-0.109271,-0.090493,0.539000
-0.104578,-0.090844,0.541000
-0.099660,-0.091027,0.542000
-0.094895,-0.091377,0.544000
-0.089926,-0.091558,0.545000
-0.084935,-0.091739,0.546000
-0.079923,-0.091919,0.547000
-0.074890,-0.092099,0.548000
-0.069709,-0.092110,0.548000
-0.064526,-0.092121,0.548000
-0.000000,-0.000000,0.000000
-0.000000,-0.000000,0.000000
-0.037797,-0.071129,0.423000
-0.033712,-0.070966,0.422000
-0.029715,-0.070972,0.422000
-0.025716,-0.070976,0.422000
-0.021717,-0.070980,0.422000
-0.017718,-0.070984,0.422000
-0.000000,-0.000000,0.000000
-0.000000,-0.000000,0.000000
-0.000000,-0.000000,0.000000
-0.000000,-0.000000,0.000000
0.000000,-0.000000,0.000000
0.007659,-0.086470,0.514000
0.012558,-0.086638,0.515000
0.017441,-0.086637,0.515000
0.022367,-0.086803,0.516000
0.027312,-0.086968,0.517000
0.032275,-0.087133,0.518000
0.037256,-0.087297,0.519000
0.042256,-0.087460,0.520000
0.047273,-0.087623,0.521000
0.052308,-0.087785,0.522000
0.057361,-0.087946,0.523000
0.062432,-0.088106,0.524000
0.067520,-0.088266,0.525000
0.072626,-0.088425,0.526000
0.077748,-0.088584,0.527000
0.082731,-0.088573,0.527000
0.087879,-0.088731,0.528000
0.093043,-0.088887,0.529000
0.098039,-0.088875,0.529000
0.103228,-0.089031,0.530000
0.108433,-0.089186,0.531000
0.113655,-0.089340,0.532000
0.118894,-0.089494,0.533000
0.123916,-0.089479,0.533000
0.129178,-0.089632,0.534000
0.134456,-0.089785,0.535000
0.139490,-0.089769,0.535000
0.144791,-0.089920,0.536000
0.150109,-0.090072,0.537000
0.155154,-0.090055,0.537000
0.160494,-0.090205,0.538000
0.165851,-0.090356,0.539000
0.170906,-0.090338,0.539000
0.176286,-0.090488,0.540000
0.181346,-0.090470,0.540000
0.186403,-0.090452,0.540000
0.191458,-0.090434,0.540000
0.196510,-0.090416,0.540000
0.201187,-0.090230,0.539000
0.206225,-0.090212,0.539000
0.211261,-0.090194,0.539000
0.215893,-0.090009,0.538000
0.220916,-0.089991,0.538000
0.000000,-0.000000,0.000000
0.000000,-0.000000,0.000000
0.000000,-0.000000,0.000000
0.000000,-0.000000,0.000000
0.000000,-0.000000,0.000000
0.000000,-0.000000,0.000000
0.000000,-0.000000,0.000000
0.000000,-0.000000,0.000000
0.000000,-0.000000,0.000000
0.237799,-0.078808,0.472000
0.242705,-0.078963,0.473000
0.247108,-0.078951,0.473000
0.251510,-0.078939,0.473000
0.256453,-0.079096,0.474000
0.260865,-0.079085,0.474000
0.265837,-0.079243,0.475000
0.270829,-0.079400,0.476000
0.275839,-0.079559,0.477000
0.280870,-0.079718,0.478000
0.285920,-0.079878,0.479000
0.290384,-0.079872,0.479000
0.295465,-0.080033,0.480000
0.300567,-0.080195,0.481000
0.305689,-0.080358,0.482000
0.311477,-0.080689,0.484000
0.316651,-0.080853,0.485000
0.321846,-0.081019,0.486000
0.327064,-0.081185,0.487000
0.332303,-0.081353,0.488000
0.337565,-0.081521,0.489000
0.343549,-0.081857,0.491000
0.348865,-0.082028,0.492000
0.354204,-0.082199,0.493000
0.359567,-0.082372,0.494000
0.365690,-0.082713,0.496000
0.371856,-0.083054,0.498000
0.378064,-0.083397,0.500000
0.384316,-0.083741,0.502000
0.391386,-0.084253,0.505000
0.398519,-0.084766,0.508000
0.405715,-0.085280,0.511000
0.412973,-0.085796,0.514000
0.419483,-0.086146,0.516000
0.426859,-0.086665,0.519000
0.434299,-0.087185,0.522000
0.440962,-0.087539,0.524000
0.447670,-0.087894,0.526000
0.453563,-0.088083,0.527000
0.459482,-0.088274,0.528000
0.465428,-0.088466,0.529000
0.000000,-0.000000,0.000000
0.000000,-0.000000,0.000000
0.000000,-0.000000,0.000000
0.000000,-0.000000,0.000000
0.000000,-0.000000,0.000000
0.000000,-0.000000,0.000000
0.000000,-0.000000,0.000000
0.000000,-0.000000,0.000000
0.000000,-0.000000,0.000000
0.000000,-0.000000,0.000000
-0.000000,-0.000000,0.000000
-0.000000,-0.000000,0.000000
-0.000000,-0.000000,0.000000
-0.000000,-0.000000,0.000000
-0.000000,-0.000000,0.000000
-0.000000,-0.000000,0.000000
-0.000000,-0.000000,0.000000
-0.000000,-0.000000,0.000000
-0.000000,-0.000000,0.000000
-0.000000,-0.000000,0.000000
-0.000000,-0.000000,0.000000
-0.000000,-0.000000,0.000000
-0.000000,-0.000000,0.000000
-0.000000,-0.000000,0.000000
-0.000000,-0.000000,0.000000
-0.000000,-0.000000,0.000000
-0.000000,-0.000000,0.000000
-0.000000,-0.000000,0.000000
-0.000000,-0.000000,0.000000
-0.347941,-0.066081,0.420000
-0.344781,-0.066225,0.421000
-0.341607,-0.066370,0.422000
-0.338419,-0.066516,0.423000
-0.336009,-0.066820,0.425000
-0.333565,-0.067125,0.427000
-0.330317,-0.067274,0.428000
-0.327817,-0.067580,0.430000
-0.325284,-0.067888,0.432000
-0.322718,-0.068196,0.434000
-0.319384,-0.068348,0.435000
-0.316761,-0.068658,0.437000
-0.313388,-0.068811,0.438000
-0.310707,-0.069123,0.440000
-0.307991,-0.069435,0.442000
-0.304555,-0.069592,0.443000
-0.301780,-0.069906,0.445000
-0.298303,-0.070064,0.446000
-0.295469,-0.070380,0.448000
-0.291950,-0.070539,0.449000
-0.289056,-0.070857,0.451000
-0.285495,-0.071018,0.452000
-0.282540,-0.071337,0.454000
-0.278936,-0.071500,0.455000
-0.275919,-0.071820,0.457000
-0.272866,-0.072142,0.459000
-0.269192,-0.072307,0.460000
-0.266076,-0.072630,0.462000
-0.262924,-0.072953,0.464000
-0.259177,-0.073121,0.465000
-0.255961,-0.073446,0.467000
-0.252707,-0.073771,0.469000
-0.248887,-0.073940,0.470000
-0.245568,-0.074267,0.472000
-0.242212,-0.074595,0.474000
-0.238316,-0.074765,0.475000
-0.234893,-0.075094,0.477000
-0.231432,-0.075423,0.479000
-0.227933,-0.075752,0.481000
-0.223931,-0.075925,0.482000
-0.220365,-0.076255,0.484000
-0.216759,-0.076586,0.486000
-0.213115,-0.076917,0.488000
-0.209004,-0.077091,0.489000
-0.205291,-0.077423,0.491000
-0.201539,-0.077756,0.493000
-0.197747,-0.078088,0.495000
-0.193916,-0.078421,0.497000
-0.190045,-0.078754,0.499000
-0.186135,-0.079087,0.501000
-0.182185,-0.079420,0.503000
-0.178195,-0.079754,0.505000
-0.174164,-0.080087,0.507000
-0.170094,-0.080421,0.509000
-0.165984,-0.080755,0.511000
-0.161833,-0.081088,0.513000
-0.157643,-0.081422,0.515000
-0.153412,-0.081755,0.517000
-0.149140,-0.082089,0.519000
-0.144828,-0.082422,0.521000
-0.140745,-0.082914,0.524000
-0.136343,-0.083247,0.526000
-0.131901,-0.083580,0.528000
-0.127418,-0.083912,0.530000
-0.122895,-0.084245,0.532000
-0.118331,-0.084577,0.534000
-0.113727,-0.084909,0.536000
-0.109286,-0.085399,0.539000
-0.104592,-0.085730,0.541000
-0.099674,-0.085902,0.542000
-0.094909,-0.086232,0.544000
-0.089939,-0.086403,0.545000
-0.085103,-0.086733,0.547000
-0.079935,-0.086744,0.547000
-0.074901,-0.086914,0.548000
-0.069719,-0.086925,0.548000
-0.064653,-0.087093,0.549000
-0.000000,-0.000000,0.000000
-0.000000,-0.000000,0.000000
-0.000000,-0.000000,0.000000
-0.033717,-0.066971,0.422000
-0.029790,-0.067135,0.423000
-0.025721,-0.066981,0.422000
-0.021721,-0.066985,0.422000
-0.017721,-0.066988,0.422000
-0.000000,-0.000000,0.000000
-0.000000,-0.000000,0.000000
-0.000000,-0.000000,0.000000
-0.000000,-0.000000,0.000000
0.002791,-0.081761,0.515000
0.007675,-0.081761,0.515000
0.012559,-0.081761,0.515000
0.017476,-0.081918,0.516000
0.022413,-0.082075,0.517000
0.027368,-0.082231,0.518000
0.032341,-0.082386,0.519000
0.037332,-0.082541,0.520000
0.042342,-0.082695,0.521000
0.047279,-0.082690,0.521000
0.052315,-0.082843,0.522000
0.057368,-0.082995,0.523000
0.062440,-0.083146,0.524000
0.067529,-0.083297,0.525000
0.072635,-0.083447,0.526000
0.077758,-0.083597,0.527000
0.082742,-0.083587,0.527000
0.087890,-0.083735,0.528000
0.093055,-0.083883,0.529000
0.098237,-0.084030,0.530000
0.103241,-0.084018,0.530000
0.108446,-0.084164,0.531000
0.113669,-0.084310,0.532000
0.118908,-0.084455,0.533000
0.123931,-0.084441,0.533000
0.129193,-0.084586,0.534000
0.134472,-0.084729,0.535000
0.139506,-0.084714,0.535000
0.144807,-0.084857,0.536000
0.150125,-0.085000,0.537000
0.155459,-0.085142,0.538000
0.160511,-0.085126,0.538000
0.165868,-0.085268,0.539000
0.171241,-0.085409,0.540000
0.176303,-0.085393,0.540000
0.181363,-0.085376,0.540000
0.186421,-0.085358,0.540000
0.191475,-0.085341,0.540000
0.196528,-0.085324,0.540000
0.201578,-0.085307,0.540000
0.206625,-0.085290,0.540000
0.211670,-0.085272,0.540000
0.216312,-0.085098,0.539000
0.221343,-0.085081,0.539000
0.226373,-0.085064,0.539000
0.000000,-0.000000,0.000000
0.000000,-0.000000,0.000000
0.000000,-0.000000,0.000000
0.000000,-0.000000,0.000000
0.000000,-0.000000,0.000000
0.000000,-0.000000,0.000000
0.000000,-0.000000,0.000000
0.000000,-0.000000,0.000000
0.238315,-0.074527,0.473000
0.242717,-0.074515,0.473000
0.247119,-0.074504,0.473000
0.252052,-0.074651,0.474000
0.256464,-0.074640,0.474000
0.261425,-0.074788,0.475000
0.265846,-0.074779,0.475000
0.270837,-0.074928,0.476000
0.275847,-0.075077,0.477000
0.280877,-0.075228,0.478000
0.285926,-0.075378,0.479000
0.290390,-0.075372,0.479000
0.295470,-0.075525,0.480000
0.300571,-0.075678,0.481000
0.305693,-0.075831,0.482000
0.311479,-0.076143,0.484000
0.316652,-0.076299,0.485000
0.321847,-0.076455,0.486000
0.327064,-0.076612,0.487000
0.332302,-0.076770,0.488000
0.337563,-0.076929,0.489000
0.343545,-0.077246,0.491000
0.348861,-0.077407,0.492000
0.354199,-0.077569,0.493000
0.360288,-0.077889,0.495000
0.365682,-0.078053,0.496000
0.371847,-0.078376,0.498000
0.378811,-0.078857,0.501000
0.385071,-0.079181,0.503000
0.392149,-0.079664,0.506000
0.399290,-0.080149,0.509000
0.406494,-0.080634,0.512000
0.412958,-0.080964,0.514000
0.420279,-0.081452,0.517000
0.426841,-0.081784,0.519000
0.434280,-0.082274,0.522000
0.440942,-0.082608,0.524000
0.447649,-0.082944,0.526000
0.453541,-0.083123,0.527000
0.459459,-0.083303,0.528000
0.465404,-0.083484,0.529000
0.000000,-0.000000,0.000000
0.000000,-0.000000,0.000000
0.000000,-0.000000,0.000000
0.000000,-0.000000,0.000000
0.000000,-0.000000,0.000000
0.000000,-0.000000,0.000000
0.000000,-0.000000,0.000000
0.000000,-0.000000,0.000000
0.000000,-0.000000,0.000000
0.000000,-0.000000,0.000000
-0.000000,-0.000000,0.000000
-0.000000,-0.000000,0.000000
-0.000000,-0.000000,0.000000
-0.000000,-0.000000,0.000000
-0.000000,-0.000000,0.000000
-0.000000,-0.000000,0.000000
-0.000000,-0.000000,0.000000
-0.000000,-0.000000,0.000000
-0.000000,-0.000000,0.000000
-0.000000,-0.000000,0.000000
-0.000000,-0.000000,0.000000
-0.000000,-0.000000,0.000000
-0.000000,-0.000000,0.000000
-0.000000,-0.000000,0.000000
-0.000000,-0.000000,0.000000
-0.000000,-0.000000,0.000000
-0.000000,-0.000000,0.000000
-0.000000,-0.000000,0.000000
-0.000000,-0.000000,0.000000
-0.000000,-0.000000,0.000000
-0.344768,-0.062273,0.421000
-0.341595,-0.062410,0.422000
-0.338409,-0.062547,0.423000
-0.335999,-0.062832,0.425000
-0.333556,-0.063119,0.427000
-0.331081,-0.063406,0.429000
-0.327810,-0.063547,0.430000
-0.325278,-0.063836,0.432000
-0.322712,-0.064125,0.434000
-0.319380,-0.064268,0.435000
-0.316757,-0.064559,0.437000
-0.313385,-0.064704,0.438000
-0.310705,-0.064997,0.440000
-0.307293,-0.065143,0.441000
-0.304554,-0.065437,0.443000
-0.301103,-0.065585,0.444000
-0.298304,-0.065881,0.446000
-0.295471,-0.066178,0.448000
-0.291953,-0.066328,0.449000
-0.289060,-0.066627,0.451000
-0.285500,-0.066778,0.452000
-0.282545,-0.067079,0.454000
-0.278942,-0.067232,0.455000
-0.275926,-0.067533,0.457000
-0.272279,-0.067688,0.458000
-0.269200,-0.067990,0.460000
-0.266085,-0.068294,0.462000
-0.262366,-0.068451,0.463000
-0.259187,-0.068756,0.465000
-0.255971,-0.069061,0.467000
-0.252718,-0.069367,0.469000
-0.248898,-0.069526,0.470000
-0.245580,-0.069834,0.472000
-0.242224,-0.070142,0.474000
-0.238329,-0.070302,0.475000
-0.234907,-0.070611,0.477000
-0.231446,-0.070920,0.479000
-0.227474,-0.071082,0.480000
-0.223946,-0.071393,0.482000
-0.220380,-0.071703,0.484000
-0.216775,-0.072015,0.486000
-0.212694,-0.072178,0.487000
-0.209020,-0.072490,0.489000
-0.205308,-0.072802,0.491000
-0.201556,-0.073114,0.493000
-0.197764,-0.073427,0.495000
-0.193933,-0.073740,0.497000
-0.189682,-0.073905,0.498000
-0.185780,-0.074218,0.500000
-0.181840,-0.074531,0.502000
-0.177859,-0.074845,0.504000
-0.174182,-0.075307,0.507000
-0.170111,-0.075621,0.509000
-0.166001,-0.075935,0.511000
-0.161850,-0.076248,0.513000
-0.157660,-0.076562,0.515000
-0.153428,-0.076876,0.517000
-0.149157,-0.077189,0.519000
-0.144845,-0.077503,0.521000
-0.140493,-0.077816,0.523000
-0.136359,-0.078278,0.526000
-0.131916,-0.078591,0.528000
-0.127433,-0.078904,0.530000
-0.122910,-0.079217,0.532000
-0.118346,-0.079529,0.534000
-0.113742,-0.079841,0.536000
-0.109097,-0.080153,0.538000
-0.104412,-0.080464,0.540000
-0.099687,-0.080775,0.542000
-0.094921,-0.081086,0.544000
-0.090116,-0.081396,0.546000
-0.085114,-0.081557,0.547000
-0.080092,-0.081717,0.548000
-0.074912,-0.081727,0.548000
-0.069856,-0.081886,0.549000
-0.064663,-0.081895,0.549000
-0.000000,-0.000000,0.000000
-0.000000,-0.000000,0.000000
-0.000000,-0.000000,0.000000
-0.033802,-0.063124,0.423000
-0.029794,-0.063128,0.423000
-0.025725,-0.062983,0.422000
-0.021725,-0.062987,0.422000
-0.000000,-0.000000,0.000000
-0.000000,-0.000000,0.000000
-0.000000,-0.000000,0.000000
-0.007006,-0.077178,0.517000
-0.002103,-0.077180,0.517000
0.002796,-0.077031,0.516000
0.007675,-0.076882,0.515000
0.012584,-0.077031,0.516000
0.017478,-0.077030,0.516000
0.022415,-0.077177,0.517000
0.027371,-0.077324,0.518000
0.032345,-0.077470,0.519000
0.037337,-0.077615,0.520000
0.042347,-0.077760,0.521000
0.047375,-0.077904,0.522000
0.052321,-0.077899,0.522000
0.057375,-0.078042,0.523000
0.062447,-0.078184,0.524000
0.067537,-0.078326,0.525000
0.072643,-0.078467,0.526000
0.077767,-0.078608,0.527000
0.082751,-0.078598,0.527000
0.087900,-0.078738,0.528000
0.093066,-0.078877,0.529000
0.098248,-0.079015,0.530000
0.103252,-0.079004,0.530000
0.108459,-0.079141,0.531000
0.113682,-0.079278,0.532000
0.118921,-0.079415,0.533000
0.123944,-0.079402,0.533000
0.129207,-0.079537,0.534000
0.134486,-0.079672,0.535000
0.139781,-0.079807,0.536000
0.144822,-0.079793,0.536000
0.150141,-0.079927,0.537000
0.155475,-0.080061,0.538000
0.160825,-0.080194,0.539000
0.165884,-0.080179,0.539000
0.171257,-0.080312,0.540000
0.176320,-0.080296,0.540000
0.181716,-0.080428,0.541000
0.186783,-0.080412,0.541000
0.191847,-0.080396,0.541000
0.196909,-0.080380,0.541000
0.201968,-0.080363,0.541000
0.207025,-0.080347,0.541000
0.211687,-0.080183,0.540000
0.216730,-0.080166,0.540000
0.221770,-0.080150,0.540000
0.226809,-0.080135,0.540000
0.231846,-0.080119,0.540000
0.000000,-0.000000,0.000000
0.000000,-0.000000,0.000000
0.000000,-0.000000,0.000000
0.000000,-0.000000,0.000000
0.000000,-0.000000,0.000000
0.000000,-0.000000,0.000000
0.000000,-0.000000,0.000000
0.238326,-0.070078,0.473000
0.242728,-0.070067,0.473000
0.247652,-0.070204,0.474000
0.252063,-0.070194,0.474000
0.256473,-0.070185,0.474000
0.261435,-0.070324,0.475000
0.266415,-0.070463,0.476000
0.270845,-0.070455,0.476000
0.275854,-0.070596,0.477000
0.280883,-0.070737,0.478000
0.285932,-0.070879,0.479000
0.291001,-0.071021,0.480000
0.295475,-0.071016,0.480000
0.300575,-0.071160,0.481000
0.305696,-0.071305,0.482000
0.311481,-0.071598,0.484000
0.316654,-0.071744,0.485000
0.321848,-0.071891,0.486000
0.327063,-0.072039,0.487000
0.332301,-0.072187,0.488000
0.337561,-0.072337,0.489000
0.343542,-0.072635,0.491000
0.348857,-0.072787,0.492000
0.354194,-0.072939,0.493000
0.360282,-0.073240,0.495000
0.366413,-0.073542,0.497000
0.372586,-0.073846,0.499000
0.379558,-0.074298,0.502000
0.385826,-0.074603,0.504000
0.392913,-0.075058,0.507000
0.400063,-0.075513,0.510000
0.407275,-0.075970,0.513000
0.413747,-0.076280,0.515000
0.420263,-0.076591,0.517000
0.427647,-0.077051,0.520000
0.434262,-0.077364,0.522000
0.440923,-0.077679,0.524000
0.447629,-0.077994,0.526000
0.453519,-0.078163,0.527000
0.459437,-0.078332,0.528000
0.465381,-0.078503,0.529000
0.000000,-0.000000,0.000000
0.000000,-0.000000,0.000000
0.000000,-0.000000,0.000000
0.000000,-0.000000,0.000000
0.000000,-0.000000,0.000000
0.000000,-0.000000,0.000000
0.000000,-0.000000,0.000000
0.000000,-0.000000,0.000000
0.000000,-0.000000,0.000000
0.000000,-0.000000,0.000000
-0.000000,-0.000000,0.000000
-0.000000,-0.000000,0.000000
-0.000000,-0.000000,0.000000
-0.000000,-0.000000,0.000000
-0.000000,-0.000000,0.000000
-0.000000,-0.000000,0.000000
-0.000000,-0.000000,0.000000
-0.000000,-0.000000,0.000000
-0.000000,-0.000000,0.000000
-0.000000,-0.000000,0.000000
-0.000000,-0.000000,0.000000
-0.000000,-0.000000,0.000000
-0.000000,-0.000000,0.000000
-0.000000,-0.000000,0.000000
-0.000000,-0.000000,0.000000
-0.000000,-0.000000,0.000000
-0.000000,-0.000000,0.000000
-0.000000,-0.000000,0.000000
-0.000000,-0.000000,0.000000
-0.000000,-0.000000,0.000000
-0.344757,-0.058321,0.421000
-0.341585,-0.058449,0.422000
-0.338399,-0.058577,0.423000
-0.335990,-0.058845,0.425000
-0.333548,-0.059113,0.427000
-0.331073,-0.059382,0.429000
-0.327803,-0.059513,0.430000
-0.325272,-0.059784,0.432000
-0.322707,-0.060055,0.434000
-0.319375,-0.060189,0.435000
-0.316753,-0.060461,0.437000
-0.313382,-0.060597,0.438000
-0.310703,-0.060871,0.440000
-0.307292,-0.061008,0.441000
-0.304554,-0.061283,0.443000
-0.301103,-0.061422,0.444000
-0.298305,-0.061699,0.446000
-0.294813,-0.061839,0.447000
-0.291956,-0.062117,0.449000
-0.288422,-0.062259,0.450000
-0.285504,-0.062539,0.452000
-0.282550,-0.062820,0.454000
-0.278948,-0.062963,0.455000
-0.275932,-0.063245,0.457000
-0.272286,-0.063390,0.458000
-0.269207,-0.063674,0.460000
-0.266093,-0.063958,0.462000
-0.262375,-0.064105,0.463000
-0.259196,-0.064390,0.465000
-0.255981,-0.064676,0.467000
-0.252190,-0.064825,0.468000
-0.248909,-0.065112,0.470000
-0.245591,-0.065400,0.472000
-0.242236,-0.065688,0.474000
-0.238341,-0.065838,0.475000
-0.234919,-0.066128,0.477000
-0.231459,-0.066417,0.479000
-0.227487,-0.066569,0.480000
-0.223960,-0.066860,0.482000
-0.220394,-0.067151,0.484000
-0.216343,-0.067303,0.485000
-0.212709,-0.067595,0.487000
-0.209035,-0.067887,0.489000
-0.205323,-0.068179,0.491000
-0.201571,-0.068472,0.493000
-0.197380,-0.068626,0.494000
-0.193559,-0.068919,0.496000
-0.189697,-0.069212,0.498000
-0.185796,-0.069506,0.500000
-0.181856,-0.069799,0.502000
-0.177875,-0.070093,0.504000
-0.173854,-0.070386,0.506000
-0.169793,-0.070680,0.508000
-0.166017,-0.071113,0.511000
-0.161866,-0.071407,0.513000
-0.157675,-0.071701,0.515000
-0.153444,-0.071995,0.517000
-0.149172,-0.072288,0.519000
-0.144860,-0.072582,0.521000
-0.140508,-0.072876,0.523000
-0.136115,-0.073169,0.525000
-0.131681,-0.073462,0.527000
-0.127448,-0.073895,0.530000
-0.122924,-0.074187,0.532000
-0.118360,-0.074480,0.534000
-0.113755,-0.074772,0.536000
-0.109110,-0.075064,0.538000
-0.104425,-0.075356,0.540000
-0.099699,-0.075647,0.542000
-0.094933,-0.075938,0.544000
-0.090127,-0.076228,0.546000
-0.085125,-0.076379,0.547000
-0.080102,-0.076529,0.548000
-0.075058,-0.076678,0.549000
-0.069866,-0.076687,0.549000
-0.064671,-0.076696,0.549000
-0.000000,-0.000000,0.000000
-0.000000,-0.000000,0.000000
-0.000000,-0.000000,0.000000
-0.038283,-0.066942,0.479000
-0.033744,-0.066947,0.479000
-0.029204,-0.066952,0.479000
-0.000000,-0.000000,0.000000
-0.000000,-0.000000,0.000000
-0.000000,-0.000000,0.000000
-0.011935,-0.072416,0.518000
-0.007021,-0.072418,0.518000
-0.002104,-0.072280,0.517000
0.002795,-0.072141,0.516000
0.007690,-0.072141,0.516000
0.012585,-0.072140,0.516000
0.017513,-0.072279,0.517000
0.022461,-0.072417,0.518000
0.027373,-0.072415,0.518000
0.032348,-0.072551,0.519000
0.037341,-0.072688,0.520000
0.042351,-0.072823,0.521000
0.047380,-0.072958,0.522000
0.052427,-0.073093,0.523000
0.057382,-0.073087,0.523000
0.062454,-0.073220,0.524000
0.067544,-0.073353,0.525000
0.072651,-0.073485,0.526000
0.077776,-0.073617,0.527000
0.082760,-0.073608,0.527000
0.087910,-0.073739,0.528000
0.093076,-0.073869,0.529000
0.098259,-0.073999,0.530000
0.103263,-0.073988,0.530000
0.108470,-0.074117,0.531000
0.113694,-0.074245,0.532000
0.118933,-0.074373,0.533000
0.123957,-0.074360,0.533000
0.129220,-0.074487,0.534000
0.134499,-0.074614,0.535000
0.139795,-0.074740,0.536000
0.144837,-0.074727,0.536000
0.150155,-0.074852,0.537000
0.155490,-0.074977,0.538000
0.160840,-0.075102,0.539000
0.166207,-0.075227,0.540000
0.171272,-0.075212,0.540000
0.176662,-0.075337,0.541000
0.181731,-0.075322,0.541000
0.186798,-0.075307,0.541000
0.192217,-0.075431,0.542000
0.197288,-0.075415,0.542000
0.202357,-0.075400,0.542000
0.207423,-0.075385,0.542000
0.212095,-0.075230,0.541000
0.217147,-0.075215,0.541000
0.222197,-0.075200,0.541000
0.227244,-0.075186,0.541000
0.232290,-0.075171,0.541000
0.000000,-0.000000,0.000000
0.000000,-0.000000,0.000000
0.000000,-0.000000,0.000000
0.000000,-0.000000,0.000000
0.000000,-0.000000,0.000000
0.000000,-0.000000,0.000000
0.000000,-0.000000,0.000000
0.238337,-0.065628,0.473000
0.243252,-0.065757,0.474000
0.247662,-0.065747,0.474000
0.252072,-0.065737,0.474000
0.257024,-0.065867,0.475000
0.261443,-0.065859,0.475000
0.266423,-0.065989,0.476000
0.271422,-0.066120,0.477000
0.275861,-0.066113,0.477000
0.280890,-0.066246,0.478000
0.285938,-0.066378,0.479000
0.291006,-0.066512,0.480000
0.296095,-0.066646,0.481000
0.300578,-0.066642,0.481000
0.305699,-0.066778,0.482000
0.311483,-0.067052,0.484000
0.316655,-0.067189,0.485000
0.321848,-0.067327,0.486000
0.327063,-0.067465,0.487000
0.332300,-0.067605,0.488000
0.337559,-0.067745,0.489000
0.343539,-0.068024,0.491000
0.348853,-0.068166,0.492000
0.354908,-0.068447,0.494000
0.360277,-0.068591,0.495000
0.366406,-0.068874,0.497000
0.373325,-0.069297,0.500000
0.379549,-0.069582,0.502000
0.386582,-0.070007,0.505000
0.393678,-0.070433,0.508000
0.400835,-0.070859,0.511000
0.407262,-0.071149,0.513000
0.414536,-0.071578,0.516000
0.421061,-0.071869,0.518000
0.427631,-0.072162,0.520000
0.434245,-0.072455,0.522000
0.440905,-0.072750,0.524000
0.447610,-0.073046,0.526000
0.453499,-0.073204,0.527000
0.459416,-0.073363,0.528000
0.465359,-0.073523,0.529000
0.000000,-0.000000,0.000000
0.000000,-0.000000,0.000000
0.000000,-0.000000,0.000000
0.000000,-0.000000,0.000000
0.000000,-0.000000,0.000000
0.000000,-0.000000,0.000000
0.000000,-0.000000,0.000000
0.000000,-0.000000,0.000000
0.000000,-0.000000,0.000000
0.000000,-0.000000,0.000000
-0.000000,-0.000000,0.000000
-0.000000,-0.000000,0.000000
-0.000000,-0.000000,0.000000
-0.000000,-0.000000,0.000000
-0.000000,-0.000000,0.000000
-0.000000,-0.000000,0.000000
-0.000000,-0.000000,0.000000
-0.000000,-0.000000,0.000000
-0.000000,-0.000000,0.000000
-0.000000,-0.000000,0.000000
-0.000000,-0.000000,0.000000
-0.000000,-0.000000,0.000000
-0.000000,-0.000000,0.000000
-0.000000,-0.000000,0.000000
-0.000000,-0.000000,0.000000
-0.000000,-0.000000,0.000000
-0.000000,-0.000000,0.000000
-0.000000,-0.000000,0.000000
-0.000000,-0.000000,0.000000
-0.000000,-0.000000,0.000000
-0.344746,-0.054370,0.421000
-0.341574,-0.054489,0.422000
-0.338389,-0.054608,0.423000
-0.335981,-0.054858,0.425000
-0.333540,-0.055108,0.427000
-0.330294,-0.055229,0.428000
-0.327796,-0.055480,0.430000
-0.325266,-0.055732,0.432000
-0.322702,-0.055985,0.434000
-0.319371,-0.056110,0.435000
-0.316750,-0.056364,0.437000
-0.313380,-0.056490,0.438000
-0.310701,-0.056745,0.440000
-0.307291,-0.056872,0.441000
-0.304553,-0.057129,0.443000
-0.301103,-0.057258,0.444000
-0.298306,-0.057517,0.446000
-0.294815,-0.057647,0.447000
-0.291958,-0.057907,0.449000
-0.288425,-0.058038,0.450000
-0.285507,-0.058299,0.452000
-0.281932,-0.058432,0.453000
-0.278953,-0.058694,0.455000
-0.275937,-0.058958,0.457000
-0.272292,-0.059092,0.458000
-0.269214,-0.059357,0.460000
-0.266100,-0.059622,0.462000
-0.262383,-0.059758,0.463000
-0.259205,-0.060024,0.465000
-0.255990,-0.060291,0.467000
-0.252199,-0.060429,0.468000
-0.248919,-0.060697,0.470000
-0.245602,-0.060965,0.472000
-0.241736,-0.061105,0.473000
-0.238353,-0.061374,0.475000
-0.234931,-0.061644,0.477000
-0.230988,-0.061785,0.478000
-0.227500,-0.062055,0.480000
-0.223973,-0.062326,0.482000
-0.219952,-0.062468,0.483000
-0.216357,-0.062739,0.485000
-0.212723,-0.063011,0.487000
-0.209049,-0.063283,0.489000
-0.205337,-0.063556,0.491000
-0.201177,-0.063699,0.492000
-0.197395,-0.063972,0.494000
-0.193573,-0.064245,0.496000
-0.189712,-0.064519,0.498000
-0.185811,-0.064792,0.500000
-0.181871,-0.065066,0.502000
-0.177890,-0.065339,0.504000
-0.173869,-0.065613,0.506000
-0.169808,-0.065887,0.508000
-0.165707,-0.066161,0.510000
-0.161566,-0.066435,0.512000
-0.157690,-0.066839,0.515000
-0.153459,-0.067112,0.517000
-0.149187,-0.067386,0.519000
-0.144875,-0.067660,0.521000
-0.140522,-0.067933,0.523000
-0.136129,-0.068207,0.525000
-0.131695,-0.068480,0.527000
-0.127221,-0.068753,0.529000
-0.122937,-0.069156,0.532000
-0.118373,-0.069429,0.534000
-0.113768,-0.069701,0.536000
-0.109123,-0.069973,0.538000
-0.104437,-0.070245,0.540000
-0.099711,-0.070517,0.542000
-0.094944,-0.070788,0.544000
-0.090138,-0.071059,0.546000
-0.085135,-0.071199,0.547000
-0.080112,-0.071339,0.548000
-0.075067,-0.071478,0.549000
-0.069874,-0.071487,0.549000
-0.064797,-0.071625,0.550000
-0.059591,-0.071633,0.550000
-0.000000,-0.000000,0.000000
-0.000000,-0.000000,0.000000
-0.038288,-0.062402,0.479000
-0.033748,-0.062407,0.479000
-0.029208,-0.062411,0.479000
-0.000000,-0.000000,0.000000
-0.000000,-0.000000,0.000000
-0.016915,-0.067764,0.520000
-0.011960,-0.067636,0.519000
-0.007023,-0.067507,0.518000
-0.002105,-0.067378,0.517000
0.002800,-0.067379,0.517000
0.007690,-0.067248,0.516000
0.012610,-0.067378,0.517000
0.017515,-0.067377,0.517000
0.022463,-0.067506,0.518000
0.027429,-0.067634,0.519000
0.032413,-0.067762,0.520000
0.037344,-0.067758,0.520000
0.042356,-0.067885,0.521000
0.047385,-0.068011,0.522000
0.052432,-0.068136,0.523000
0.057388,-0.068130,0.523000
0.062461,-0.068255,0.524000
0.067551,-0.068378,0.525000
0.072659,-0.068502,0.526000
0.077784,-0.068624,0.527000
0.082769,-0.068616,0.527000
0.087919,-0.068738,0.528000
0.093085,-0.068859,0.529000
0.098269,-0.068980,0.530000
0.103274,-0.068970,0.530000
0.108481,-0.069090,0.531000
0.113705,-0.069210,0.532000
0.118945,-0.069329,0.533000
0.123969,-0.069318,0.533000
0.129232,-0.069436,0.534000
0.134512,-0.069554,0.535000
0.139808,-0.069672,0.536000
0.144850,-0.069659,0.536000
0.150169,-0.069776,0.537000
0.155503,-0.069893,0.538000
0.160854,-0.070009,0.539000
0.166221,-0.070126,0.540000
0.171287,-0.070112,0.540000
0.176676,-0.070228,0.541000
0.181746,-0.070214,0.541000
0.187158,-0.070329,0.542000
0.192232,-0.070315,0.542000
0.197303,-0.070301,0.542000
0.202372,-0.070287,0.542000
0.207438,-0.070273,0.542000
0.212501,-0.070258,0.542000
0.217563,-0.070244,0.542000
0.222622,-0.070230,0.542000
0.227259,-0.070087,0.541000
0.232304,-0.070073,0.541000
0.237787,-0.070189,0.542000
0.000000,-0.000000,0.000000
0.000000,-0.000000,0.000000
0.000000,-0.000000,0.000000
0.267978,-0.072856,0.563000
0.272734,-0.072714,0.562000
0.000000,-0.000000,0.000000
0.000000,-0.000000,0.000000
0.243261,-0.061298,0.474000
0.248194,-0.061418,0.475000
0.252613,-0.061409,0.475000
0.257032,-0.061401,0.475000
0.262002,-0.061522,0.476000
0.266430,-0.061515,0.476000
0.271429,-0.061637,0.477000
0.276446,-0.061760,0.478000
0.280896,-0.061754,0.478000
0.285943,-0.061878,0.479000
0.291011,-0.062003,0.480000
0.296099,-0.062128,0.481000
0.301207,-0.062253,0.482000
0.305701,-0.062251,0.482000
0.311485,-0.062507,0.484000
0.316656,-0.062635,0.485000
0.321849,-0.062763,0.486000
0.327063,-0.062892,0.487000
0.332298,-0.063022,0.488000
0.337557,-0.063153,0.489000
0.343537,-0.063414,0.491000
0.348849,-0.063546,0.492000
0.354903,-0.063808,0.494000
0.360999,-0.064072,0.496000
0.367137,-0.064336,0.498000
0.373318,-0.064601,0.500000
0.380297,-0.064996,0.503000
0.387339,-0.065392,0.506000
0.394442,-0.065789,0.509000
0.400824,-0.066058,0.511000
0.408044,-0.066457,0.514000
0.414523,-0.066728,0.516000
0.421047,-0.067000,0.518000
0.428438,-0.067402,0.521000
0.435061,-0.067676,0.523000
0.440888,-0.067822,0.524000
0.447592,-0.068098,0.526000
0.453480,-0.068245,0.527000
0.459396,-0.068394,0.528000
0.465338,-0.068543,0.529000
0.000000,-0.000000,0.000000
0.000000,-0.000000,0.000000
0.000000,-0.000000,0.000000
0.000000,-0.000000,0.000000
0.000000,-0.000000,0.000000
0.000000,-0.000000,0.000000
0.000000,-0.000000,0.000000
0.000000,-0.000000,0.000000
0.000000,-0.000000,0.000000
0.000000,-0.000000,0.000000
-0.000000,-0.000000,0.000000
-0.000000,-0.000000,0.000000
-0.000000,-0.000000,0.000000
-0.000000,-0.000000,0.000000
-0.000000,-0.000000,0.000000
-0.000000,-0.000000,0.000000
-0.000000,-0.000000,0.000000
-0.000000,-0.000000,0.000000
-0.000000,-0.000000,0.000000
-0.000000,-0.000000,0.000000
-0.000000,-0.000000,0.000000
-0.000000,-0.000000,0.000000
-0.000000,-0.000000,0.000000
-0.000000,-0.000000,0.000000
-0.000000,-0.000000,0.000000
-0.000000,-0.000000,0.000000
-0.000000,-0.000000,0.000000
-0.000000,-0.000000,0.000000
-0.000000,-0.000000,0.000000
-0.000000,-0.000000,0.000000
-0.344735,-0.050419,0.421000
-0.341565,-0.050529,0.422000
-0.338380,-0.050640,0.423000
-0.335972,-0.050871,0.425000
-0.333532,-0.051102,0.427000
-0.330287,-0.051215,0.428000
-0.327790,-0.051448,0.430000
-0.325260,-0.051681,0.432000
-0.321954,-0.051796,0.433000
-0.319367,-0.052031,0.435000
-0.316022,-0.052146,0.436000
-0.313377,-0.052383,0.438000
-0.309992,-0.052500,0.439000
-0.307290,-0.052737,0.441000
-0.303865,-0.052856,0.442000
-0.301103,-0.053095,0.444000
-0.298307,-0.053334,0.446000
-0.294816,-0.053455,0.447000
-0.291960,-0.053696,0.449000
-0.288428,-0.053817,0.450000
-0.285511,-0.054059,0.452000
-0.281936,-0.054182,0.453000
-0.278957,-0.054426,0.455000
-0.275339,-0.054550,0.456000
-0.272298,-0.054794,0.458000
-0.269221,-0.055039,0.460000
-0.265531,-0.055165,0.461000
-0.262390,-0.055411,0.463000
-0.259213,-0.055658,0.465000
-0.255450,-0.055786,0.466000
-0.252208,-0.056033,0.468000
-0.248929,-0.056282,0.470000
-0.245612,-0.056530,0.472000
-0.241746,-0.056660,0.473000
-0.238363,-0.056909,0.475000
-0.234942,-0.057159,0.477000
-0.231000,-0.057290,0.478000
-0.227512,-0.057540,0.480000
-0.223985,-0.057791,0.482000
-0.219964,-0.057923,0.483000
-0.216369,-0.058175,0.485000
-0.212735,-0.058427,0.487000
-0.209062,-0.058679,0.489000
-0.204932,-0.058812,0.490000
-0.201190,-0.059065,0.492000
-0.197408,-0.059318,0.494000
-0.193587,-0.059571,0.496000
-0.189726,-0.059824,0.498000
-0.185825,-0.060078,0.500000
-0.181885,-0.060331,0.502000
-0.177904,-0.060585,0.504000
-0.173883,-0.060839,0.506000
-0.169822,-0.061093,0.508000
-0.165721,-0.061347,0.510000
-0.161580,-0.061601,0.512000
-0.157398,-0.061855,0.514000
-0.153176,-0.062108,0.516000
-0.149201,-0.062483,0.519000
-0.144888,-0.062736,0.521000
-0.140535,-0.062990,0.523000
-0.136142,-0.063244,0.525000
-0.131708,-0.063497,0.527000
-0.127234,-0.063750,0.529000
-0.122719,-0.064003,0.531000
-0.118385,-0.064376,0.534000
-0.113780,-0.064629,0.536000
-0.109134,-0.064881,0.538000
-0.104448,-0.065133,0.540000
-0.099721,-0.065385,0.542000
-0.094955,-0.065636,0.544000
-0.090148,-0.065888,0.546000
-0.085145,-0.066018,0.547000
-0.080121,-0.066147,0.548000
-0.075076,-0.066276,0.549000
-0.070010,-0.066405,0.550000
-0.064805,-0.066413,0.550000
-0.059598,-0.066420,0.550000
-0.000000,-0.000000,0.000000
-0.000000,-0.000000,0.000000
-0.000000,-0.000000,0.000000
-0.000000,-0.000000,0.000000
-0.000000,-0.000000,0.000000
-0.000000,-0.000000,0.000000
-0.021892,-0.062950,0.521000
-0.016918,-0.062832,0.520000
-0.011962,-0.062714,0.519000
-0.007024,-0.062594,0.518000
-0.002105,-0.062475,0.517000
0.002800,-0.062475,0.517000
0.007705,-0.062475,0.517000
0.012611,-0.062475,0.517000
0.017550,-0.062595,0.518000
0.022464,-0.062593,0.518000
0.027431,-0.062712,0.519000
0.032416,-0.062830,0.520000
0.037348,-0.062827,0.520000
0.042360,-0.062944,0.521000
0.047390,-0.063061,0.522000
0.052437,-0.063177,0.523000
0.057393,-0.063172,0.523000
0.062467,-0.063288,0.524000
0.067558,-0.063402,0.525000
0.072666,-0.063517,0.526000
0.077791,-0.063630,0.527000
0.082777,-0.063623,0.527000
0.087927,-0.063736,0.528000
0.093094,-0.063848,0.529000
0.098278,-0.063960,0.530000
0.103478,-0.064072,0.531000
0.108491,-0.064063,0.531000
0.113715,-0.064173,0.532000
0.118956,-0.064284,0.533000
0.124213,-0.064394,0.534000
0.129244,-0.064383,0.534000
0.134524,-0.064492,0.535000
0.139820,-0.064602,0.536000
0.144862,-0.064590,0.536000
0.150181,-0.064698,0.537000
0.155516,-0.064807,0.538000
0.160867,-0.064915,0.539000
0.166234,-0.065023,0.540000
0.171300,-0.065010,0.540000
0.176690,-0.065118,0.541000
0.182096,-0.065225,0.542000
0.187172,-0.065212,0.542000
0.192246,-0.065199,0.542000
0.197681,-0.065306,0.543000
0.202759,-0.065293,0.543000
0.207834,-0.065280,0.543000
0.212907,-0.065267,0.543000
0.217978,-0.065254,0.543000
0.222635,-0.065121,0.542000
0.227692,-0.065108,0.542000
0.232747,-0.065095,0.542000
0.237800,-0.065083,0.542000
0.000000,-0.000000,0.000000
0.000000,-0.000000,0.000000
0.262749,-0.067567,0.563000
0.267991,-0.067555,0.563000
0.273231,-0.067544,0.563000
0.000000,-0.000000,0.000000
0.000000,-0.000000,0.000000
0.243784,-0.056959,0.475000
0.248203,-0.056950,0.475000
0.252621,-0.056942,0.475000
0.257581,-0.057054,0.476000
0.262009,-0.057047,0.476000
0.266997,-0.057160,0.477000
0.271435,-0.057154,0.477000
0.276452,-0.057268,0.478000
0.280901,-0.057263,0.478000
0.285948,-0.057378,0.479000
0.291015,-0.057493,0.480000
0.296102,-0.057609,0.481000
0.301210,-0.057726,0.482000
0.306338,-0.057843,0.483000
0.311487,-0.057961,0.484000
0.316657,-0.058080,0.485000
0.321849,-0.058199,0.486000
0.327062,-0.058319,0.487000
0.332297,-0.058440,0.488000
0.337555,-0.058561,0.489000
0.343534,-0.058803,0.491000
0.348846,-0.058926,0.492000
0.354899,-0.059169,0.494000
0.360994,-0.059414,0.496000
0.367131,-0.059659,0.498000
0.373311,-0.059905,0.500000
0.380289,-0.060271,0.503000
0.387330,-0.060639,0.506000
0.394433,-0.061007,0.509000
0.401598,-0.061377,0.512000
0.408032,-0.061627,0.514000
0.415314,-0.061999,0.517000
0.421847,-0.062251,0.519000
0.428424,-0.062504,0.521000
0.435046,-0.062759,0.523000
0.441713,-0.063014,0.525000
0.447574,-0.063150,0.526000
0.453462,-0.063287,0.527000
0.459377,-0.063425,0.528000
0.465318,-0.063564,0.529000
0.000000,-0.000000,0.000000
0.000000,-0.000000,0.000000
0.000000,-0.000000,0.000000
0.000000,-0.000000,0.000000
0.000000,-0.000000,0.000000
0.000000,-0.000000,0.000000
0.000000,-0.000000,0.000000
0.000000,-0.000000,0.000000
0.000000,-0.000000,0.000000
0.000000,-0.000000,0.000000
-0.000000,-0.000000,0.000000
-0.000000,-0.000000,0.000000
-0.000000,-0.000000,0.000000
-0.000000,-0.000000,0.000000
-0.000000,-0.000000,0.000000
-0.000000,-0.000000,0.000000
-0.000000,-0.000000,0.000000
-0.000000,-0.000000,0.000000
-0.000000,-0.000000,0.000000
-0.000000,-0.000000,0.000000
-0.000000,-0.000000,0.000000
-0.000000,-0.000000,0.000000
-0.000000,-0.000000,0.000000
-0.000000,-0.000000,0.000000
-0.000000,-0.000000,0.000000
-0.000000,-0.000000,0.000000
-0.000000,-0.000000,0.000000
-0.000000,-0.000000,0.000000
-0.000000,-0.000000,0.000000
-0.000000,-0.000000,0.000000
-0.344725,-0.046469,0.421000
-0.341555,-0.046570,0.422000
-0.338372,-0.046672,0.423000
-0.335965,-0.046884,0.425000
-0.333525,-0.047097,0.427000
-0.330280,-0.047201,0.428000
-0.327784,-0.047415,0.430000
-0.325255,-0.047630,0.432000
-0.321949,-0.047736,0.433000
-0.319363,-0.047952,0.435000
-0.316018,-0.048058,0.436000
-0.313374,-0.048276,0.438000
-0.309990,-0.048384,0.439000
-0.307288,-0.048602,0.441000
-0.303864,-0.048711,0.442000
-0.301103,-0.048931,0.444000
-0.297639,-0.049042,0.445000
-0.294818,-0.049263,0.447000
-0.291312,-0.049374,0.448000
-0.288430,-0.049597,0.450000
-0.285514,-0.049819,0.452000
-0.281939,-0.049933,0.453000
-0.278961,-0.050157,0.455000
-0.275344,-0.050271,0.456000
-0.272303,-0.050496,0.458000
-0.269226,-0.050722,0.460000
-0.265537,-0.050838,0.461000
-0.262397,-0.051064,0.463000
-0.259220,-0.051292,0.465000
-0.255458,-0.051409,0.466000
-0.252216,-0.051637,0.468000
-0.248937,-0.051866,0.470000
-0.245100,-0.051984,0.471000
-0.241756,-0.052214,0.473000
-0.238373,-0.052444,0.475000
-0.234460,-0.052564,0.476000
-0.231010,-0.052794,0.478000
-0.227522,-0.053025,0.480000
-0.223531,-0.053146,0.481000
-0.219975,-0.053378,0.483000
-0.216381,-0.053609,0.485000
-0.212747,-0.053842,0.487000
-0.208647,-0.053963,0.488000
-0.204944,-0.054196,0.490000
-0.201202,-0.054429,0.492000
-0.197421,-0.054662,0.494000
-0.193600,-0.054895,0.496000
-0.189739,-0.055129,0.498000
-0.185838,-0.055362,0.500000
-0.181897,-0.055596,0.502000
-0.177917,-0.055830,0.504000
-0.173896,-0.056064,0.506000
-0.169835,-0.056297,0.508000
-0.165734,-0.056531,0.510000
-0.161592,-0.056765,0.512000
-0.157411,-0.056999,0.514000
-0.153188,-0.057233,0.516000
-0.148926,-0.057467,0.518000
-0.144901,-0.057812,0.521000
-0.140547,-0.058045,0.523000
-0.136154,-0.058279,0.525000
-0.131720,-0.058512,0.527000
-0.127245,-0.058746,0.529000
-0.122730,-0.058979,0.531000
-0.118174,-0.059212,0.533000
-0.113791,-0.059555,0.536000
-0.109145,-0.059788,0.538000
-0.104458,-0.060020,0.540000
-0.099731,-0.060252,0.542000
-0.094964,-0.060484,0.544000
-0.090157,-0.060715,0.546000
-0.085154,-0.060835,0.547000
-0.080129,-0.060954,0.548000
-0.075084,-0.061073,0.549000
-0.070017,-0.061192,0.550000
-0.064812,-0.061199,0.550000
-0.059605,-0.061205,0.550000
-0.000000,-0.000000,0.000000
-0.000000,-0.000000,0.000000
-0.000000,-0.000000,0.000000
-0.000000,-0.000000,0.000000
-0.000000,-0.000000,0.000000
-0.000000,-0.000000,0.000000
-0.021895,-0.058008,0.521000
-0.016920,-0.057899,0.520000
-0.011964,-0.057790,0.519000
-0.007026,-0.057680,0.518000
-0.002106,-0.057570,0.517000
0.002800,-0.057570,0.517000
0.007706,-0.057570,0.517000
0.012612,-0.057570,0.517000
0.017551,-0.057680,0.518000
0.022466,-0.057679,0.518000
0.027433,-0.057788,0.519000
0.032419,-0.057897,0.520000
0.037423,-0.058006,0.521000
0.042363,-0.058003,0.521000
0.047394,-0.058110,0.522000
0.052442,-0.058217,0.523000
0.057398,-0.058213,0.523000
0.062472,-0.058319,0.524000
0.067564,-0.058425,0.525000
0.072672,-0.058530,0.526000
0.077798,-0.058635,0.527000
0.082784,-0.058628,0.527000
0.087935,-0.058732,0.528000
0.093102,-0.058836,0.529000
0.098286,-0.058939,0.530000
0.103487,-0.059042,0.531000
0.108500,-0.059033,0.531000
0.113725,-0.059136,0.532000
0.118966,-0.059237,0.533000
0.124223,-0.059339,0.534000
0.129254,-0.059329,0.534000
0.134535,-0.059430,0.535000
0.139831,-0.059530,0.536000
0.144873,-0.059520,0.536000
0.150193,-0.059620,0.537000
0.155528,-0.059720,0.538000
0.160879,-0.059819,0.539000
0.166246,-0.059919,0.540000
0.171630,-0.060018,0.541000
0.176702,-0.060006,0.541000
0.182108,-0.060105,0.542000
0.187184,-0.060093,0.542000
0.192613,-0.060192,0.543000
0.197693,-0.060180,0.543000
0.202771,-0.060168,0.543000
0.208229,-0.060267,0.544000
0.213312,-0.060255,0.544000
0.217990,-0.060132,0.543000
0.223058,-0.060120,0.543000
0.228124,-0.060109,0.543000
0.233188,-0.060097,0.543000
0.238250,-0.060086,0.543000
0.243310,-0.060075,0.543000
0.000000,-0.000000,0.000000
0.262760,-0.062265,0.563000
0.268002,-0.062254,0.563000
0.273242,-0.062243,0.563000
0.000000,-0.000000,0.000000
0.000000,-0.000000,0.000000
0.243792,-0.052490,0.475000
0.248210,-0.052482,0.475000
0.253161,-0.052585,0.476000
0.257588,-0.052578,0.476000
0.262016,-0.052572,0.476000
0.267003,-0.052676,0.477000
0.271441,-0.052670,0.477000
0.276457,-0.052775,0.478000
0.281493,-0.052881,0.479000
0.285952,-0.052877,0.479000
0.291019,-0.052983,0.480000
0.296105,-0.053091,0.481000
0.301212,-0.053198,0.482000
0.306340,-0.053307,0.483000
0.311488,-0.053415,0.484000
0.316658,-0.053525,0.485000
0.321849,-0.053635,0.486000
0.327061,-0.053746,0.487000
0.332296,-0.053857,0.488000
0.337552,-0.053969,0.489000
0.343531,-0.054192,0.491000
0.348842,-0.054306,0.492000
0.354894,-0.054530,0.494000
0.360989,-0.054756,0.496000
0.367125,-0.054982,0.498000
0.374051,-0.055319,0.501000
0.381038,-0.055657,0.504000
0.388087,-0.055996,0.507000
0.395198,-0.056336,0.510000
0.401588,-0.056567,0.512000
0.408815,-0.056908,0.515000
0.415302,-0.057140,0.517000
0.421834,-0.057373,0.519000
0.429233,-0.057718,0.522000
0.435031,-0.057842,0.523000
0.441698,-0.058077,0.525000
0.448409,-0.058314,0.527000
0.454306,-0.058441,0.528000
0.460229,-0.058568,0.529000
0.466179,-0.058696,0.530000
0.000000,-0.000000,0.000000
0.000000,-0.000000,0.000000
0.000000,-0.000000,0.000000
0.000000,-0.000000,0.000000
0.000000,-0.000000,0.000000
0.000000,-0.000000,0.000000
0.000000,-0.000000,0.000000
0.000000,-0.000000,0.000000
0.000000,-0.000000,0.000000
0.000000,-0.000000,0.000000
-0.000000,-0.000000,0.000000
-0.000000,-0.000000,0.000000
-0.000000,-0.000000,0.000000
-0.000000,-0.000000,0.000000
-0.000000,-0.000000,0.000000
-0.000000,-0.000000,0.000000
-0.000000,-0.000000,0.000000
-0.000000,-0.000000,0.000000
-0.000000,-0.000000,0.000000
-0.000000,-0.000000,0.000000
-0.000000,-0.000000,0.000000
-0.000000,-0.000000,0.000000
-0.000000,-0.000000,0.000000
-0.000000,-0.000000,0.000000
-0.000000,-0.000000,0.000000
-0.000000,-0.000000,0.000000
-0.000000,-0.000000,0.000000
-0.000000,-0.000000,0.000000
-0.000000,-0.000000,0.000000
-0.000000,-0.000000,0.000000
-0.344716,-0.042519,0.421000
-0.341547,-0.042611,0.422000
-0.338363,-0.042704,0.423000
-0.335957,-0.042898,0.425000
-0.332737,-0.042992,0.426000
-0.330274,-0.043187,0.428000
-0.327779,-0.043383,0.430000
-0.325250,-0.043580,0.432000
-0.321945,-0.043676,0.433000
-0.319359,-0.043873,0.435000
-0.316015,-0.043970,0.436000
-0.313372,-0.044169,0.438000
-0.309988,-0.044268,0.439000
-0.307287,-0.044467,0.441000
-0.303863,-0.044567,0.442000
-0.301103,-0.044768,0.444000
-0.297639,-0.044869,0.445000
-0.294818,-0.045071,0.447000
-0.291313,-0.045173,0.448000
-0.288432,-0.045376,0.450000
-0.284885,-0.045479,0.451000
-0.281942,-0.045683,0.453000
-0.278965,-0.045888,0.455000
-0.275348,-0.045992,0.456000
-0.272308,-0.046198,0.458000
-0.268646,-0.046303,0.459000
-0.265543,-0.046510,0.461000
-0.262403,-0.046717,0.463000
-0.258669,-0.046824,0.464000
-0.255465,-0.047032,0.466000
-0.252224,-0.047241,0.468000
-0.248945,-0.047450,0.470000
-0.245109,-0.047558,0.471000
-0.241764,-0.047768,0.473000
-0.238382,-0.047978,0.475000
-0.234469,-0.048087,0.476000
-0.231020,-0.048298,0.478000
-0.227532,-0.048509,0.480000
-0.223541,-0.048620,0.481000
-0.219986,-0.048831,0.483000
-0.216391,-0.049043,0.485000
-0.212758,-0.049256,0.487000
-0.208658,-0.049367,0.488000
-0.204955,-0.049580,0.490000
-0.201213,-0.049793,0.492000
-0.197432,-0.050006,0.494000
-0.193611,-0.050219,0.496000
-0.189750,-0.050433,0.498000
-0.185850,-0.050646,0.500000
-0.181909,-0.050860,0.502000
-0.177928,-0.051073,0.504000
-0.173908,-0.051287,0.506000
-0.169847,-0.051501,0.508000
-0.165746,-0.051715,0.510000
-0.161604,-0.051929,0.512000
-0.157422,-0.052143,0.514000
-0.153200,-0.052357,0.516000
-0.148937,-0.052571,0.518000
-0.144634,-0.052784,0.520000
-0.140559,-0.053100,0.523000
-0.136165,-0.053313,0.525000
-0.131731,-0.053527,0.527000
-0.127256,-0.053740,0.529000
-0.122740,-0.053953,0.531000
-0.118185,-0.054166,0.533000
-0.113588,-0.054379,0.535000
-0.109154,-0.054693,0.538000
-0.104467,-0.054905,0.540000
-0.099740,-0.055118,0.542000
-0.094973,-0.055329,0.544000
-0.090000,-0.055439,0.545000
-0.085162,-0.055650,0.547000
-0.080137,-0.055760,0.548000
-0.075091,-0.055868,0.549000
-0.070024,-0.055977,0.550000
-0.064818,-0.055983,0.550000
-0.059611,-0.055989,0.550000
-0.054402,-0.055995,0.550000
-0.000000,-0.000000,0.000000
-0.000000,-0.000000,0.000000
-0.000000,-0.000000,0.000000
-0.000000,-0.000000,0.000000
-0.000000,-0.000000,0.000000
-0.021897,-0.053064,0.521000
-0.016922,-0.052965,0.520000
-0.011965,-0.052865,0.519000
-0.007027,-0.052764,0.518000
-0.002107,-0.052663,0.517000
0.002799,-0.052664,0.517000
0.007706,-0.052664,0.517000
0.012612,-0.052664,0.517000
0.017552,-0.052765,0.518000
0.022511,-0.052865,0.519000
0.027435,-0.052863,0.519000
0.032421,-0.052963,0.520000
0.037426,-0.053062,0.521000
0.042367,-0.053060,0.521000
0.047398,-0.053158,0.522000
0.052446,-0.053256,0.523000
0.057513,-0.053354,0.524000
0.062477,-0.053349,0.524000
0.067569,-0.053446,0.525000
0.072678,-0.053542,0.526000
0.077805,-0.053638,0.527000
0.082791,-0.053632,0.527000
0.087942,-0.053727,0.528000
0.093110,-0.053822,0.529000
0.098294,-0.053917,0.530000
0.103495,-0.054011,0.531000
0.108509,-0.054003,0.531000
0.113734,-0.054096,0.532000
0.118975,-0.054190,0.533000
0.124232,-0.054282,0.534000
0.129264,-0.054273,0.534000
0.134545,-0.054366,0.535000
0.139841,-0.054458,0.536000
0.144884,-0.054448,0.536000
0.150203,-0.054540,0.537000
0.155539,-0.054631,0.538000
0.160890,-0.054723,0.539000
0.166257,-0.054814,0.540000
0.171641,-0.054905,0.541000
0.176714,-0.054894,0.541000
0.182119,-0.054985,0.542000
0.187196,-0.054974,0.542000
0.192624,-0.055064,0.543000
0.197705,-0.055053,0.543000
0.203156,-0.055144,0.544000
0.208241,-0.055133,0.544000
0.213323,-0.055122,0.544000
0.218403,-0.055111,0.544000
0.223480,-0.055101,0.544000
0.228135,-0.054989,0.543000
0.233199,-0.054978,0.543000
0.238261,-0.054968,0.543000
0.243321,-0.054958,0.543000
0.000000,-0.000000,0.000000
0.000000,-0.000000,0.000000
0.000000,-0.000000,0.000000
0.000000,-0.000000,0.000000
0.000000,-0.000000,0.000000
0.000000,-0.000000,0.000000
0.000000,-0.000000,0.000000
0.248740,-0.048114,0.476000
0.253167,-0.048108,0.476000
0.257594,-0.048101,0.476000
0.262572,-0.048197,0.477000
0.267009,-0.048191,0.477000
0.272015,-0.048287,0.478000
0.276462,-0.048283,0.478000
0.281498,-0.048380,0.479000
0.286553,-0.048477,0.480000
0.291022,-0.048474,0.480000
0.296108,-0.048572,0.481000
0.301214,-0.048671,0.482000
0.306341,-0.048770,0.483000
0.311489,-0.048870,0.484000
0.316658,-0.048970,0.485000
0.321849,-0.049071,0.486000
0.327061,-0.049173,0.487000
0.332294,-0.049275,0.488000
0.338241,-0.049478,0.490000
0.343528,-0.049582,0.491000
0.348839,-0.049686,0.492000
0.354890,-0.049892,0.494000
0.360984,-0.050098,0.496000
0.367120,-0.050305,0.498000
0.374044,-0.050614,0.501000
0.381031,-0.050924,0.504000
0.388079,-0.051235,0.507000
0.395190,-0.051546,0.510000
0.402363,-0.051858,0.513000
0.408805,-0.052070,0.515000
0.416095,-0.052384,0.518000
0.422635,-0.052597,0.520000
0.429220,-0.052811,0.522000
0.435850,-0.053026,0.524000
0.442525,-0.053242,0.526000
0.448394,-0.053358,0.527000
0.454290,-0.053474,0.528000
0.460213,-0.053591,0.529000
0.466162,-0.053709,0.530000
0.000000,-0.000000,0.000000
0.000000,-0.000000,0.000000
0.000000,-0.000000,0.000000
0.000000,-0.000000,0.000000
0.000000,-0.000000,0.000000
0.000000,-0.000000,0.000000
0.000000,-0.000000,0.000000
0.000000,-0.000000,0.000000
0.000000,-0.000000,0.000000
0.000000,-0.000000,0.000000
-0.000000,-0.000000,0.000000
-0.000000,-0.000000,0.000000
-0.000000,-0.000000,0.000000
-0.000000,-0.000000,0.000000
-0.000000,-0.000000,0.000000
-0.000000,-0.000000,0.000000
-0.000000,-0.000000,0.000000
-0.000000,-0.000000,0.000000
-0.000000,-0.000000,0.000000
-0.000000,-0.000000,0.000000
-0.000000,-0.000000,0.000000
-0.000000,-0.000000,0.000000
-0.000000,-0.000000,0.000000
-0.000000,-0.000000,0.000000
-0.000000,-0.000000,0.000000
-0.000000,-0.000000,0.000000
-0.000000,-0.000000,0.000000
-0.000000,-0.000000,0.000000
-0.000000,-0.000000,0.000000
-0.000000,-0.000000,0.000000
-0.344707,-0.038569,0.421000
-0.341538,-0.038652,0.422000
-0.338356,-0.038736,0.423000
-0.335950,-0.038912,0.425000
-0.332730,-0.038997,0.426000
-0.330268,-0.039174,0.428000
-0.327773,-0.039351,0.430000
-0.324492,-0.039437,0.431000
-0.321940,-0.039616,0.433000
-0.319355,-0.039795,0.435000
-0.316012,-0.039883,0.436000
-0.313369,-0.040063,0.438000
-0.309986,-0.040152,0.439000
-0.307285,-0.040333,0.441000
